9.49 -6.943 -0.462 158 234 187 
9.598 -6.975 -0.468 158 234 187 
9.652 -6.969 -0.47 158 234 187 
9.701 -6.958 -0.472 158 234 187 
9.754 -6.973 -0.475 158 234 187 
9.94 -7.06 -0.486 158 234 187 
10.138 -7.153 -0.499 158 234 187 
10.193 -7.144 -0.501 158 234 187 
10.239 -7.128 -0.503 158 234 187 
10.302 -7.124 -0.505 158 234 187 
10.359 -7.116 -0.508 158 234 187 
10.512 -7.197 -0.517 158 234 187 
10.62 -7.222 -0.523 158 234 187 
10.728 -7.247 -0.529 158 234 187 
10.842 -7.275 -0.535 158 234 187 
10.974 -7.314 -0.543 158 234 187 
10.963 -7.256 -0.54 158 234 187 
11.185 -7.354 -0.554 158 234 187 
11.3 -7.404 -0.561 158 234 187 
11.37 -7.399 -0.564 158 234 187 
11.31 -7.309 -0.558 158 234 187 
11.356 -7.289 -0.56 158 234 187 
11.246 -7.168 -0.551 158 234 187 
11.609 -7.349 -0.574 158 234 187 
11.907 -7.486 -0.592 158 234 187 
12.127 -7.598 -0.606 158 234 187 
12.176 -7.576 -0.608 158 234 187 
12.223 -7.553 -0.61 158 234 187 
12.502 -7.671 -0.626 158 234 187 
12.695 -7.735 -0.638 158 234 187 
12.821 -7.757 -0.644 158 234 187 
12.957 -7.784 -0.652 225 82 220 
13.121 -7.855 -0.662 225 82 220 
13.276 -7.892 -0.67 225 82 220 
13.358 -7.884 -0.674 225 82 220 
13.555 -7.943 -0.685 225 82 220 
13.747 -7.998 -0.696 225 82 220 
13.91 -8.035 -0.705 225 82 220 
14.195 -8.141 -0.722 225 82 220 
14.239 -8.136 -0.724 225 82 220 
14.327 -8.127 -0.728 225 82 220 
14.728 -8.294 -0.753 225 82 220 
14.788 -8.267 -0.755 225 82 220 
14.818 -8.223 -0.755 225 82 220 
14.852 -8.181 -0.756 225 82 220 
14.873 -8.131 -0.755 225 82 220 
14.956 -8.146 -0.76 225 82 220 
15.123 -8.176 -0.769 225 82 220 
15.316 -8.219 -0.78 225 82 220 
15.519 -8.266 -0.791 225 82 220 
15.785 -8.344 -0.807 150 20 100 
16.036 -8.413 -0.821 150 20 100 
16.259 -8.465 -0.834 150 20 100 
16.472 -8.544 -0.846 150 20 100 
16.696 -8.594 -0.859 150 20 100 
16.934 -8.649 -0.872 150 20 100 
17.177 -8.706 -0.886 150 20 100 
17.42 -8.761 -0.9 150 20 100 
17.676 -8.82 -0.914 150 20 100 
17.921 -8.873 -0.928 150 20 100 
18.17 -8.961 -0.943 150 20 100 
18.452 -9.029 -0.959 150 20 100 
18.719 -9.087 -0.974 150 20 100 
19.012 -9.156 -0.99 150 20 100 
19.304 -9.222 -1.007 150 20 100 
19.06 -9.032 -0.99 150 20 100 
19.098 -8.976 -0.99 150 20 100 
20.196 -9.455 -1.058 150 20 100 
20.519 -9.528 -1.076 150 20 100 
20.85 -9.603 -1.095 150 20 100 
21.208 -9.688 -1.115 150 20 100 
21.568 -9.771 -1.136 150 20 100 
21.917 -9.847 -1.156 150 20 100 
22.289 -9.93 -1.177 150 20 100 
22.645 -10.047 -1.198 150 20 100 
23.055 -10.142 -1.221 150 20 100 
23.495 -10.248 -1.246 68 220 186 
23.922 -10.346 -1.271 68 220 186 
24.413 -10.468 -1.299 68 220 186 
24.894 -10.582 -1.327 68 220 186 
25.371 -10.691 -1.354 68 220 186 
25.892 -10.816 -1.384 68 220 186 
26.39 -10.976 -1.413 68 220 186 
26.912 -11.094 -1.443 68 220 186 
27.486 -11.231 -1.476 68 220 186 
18.766 -7.385 -0.937 150 20 100 
18.75 -7.345 -0.936 150 20 100 
18.76 -7.281 -0.935 150 20 100 
18.785 -7.222 -0.935 150 20 100 
18.794 -7.158 -0.934 150 20 100 
18.819 -7.1 -0.934 150 20 100 
18.822 -7.034 -0.933 150 20 100 
18.842 -6.974 -0.933 150 20 100 
18.844 -6.941 -0.933 150 20 100 
18.867 -6.882 -0.933 150 20 100 
18.883 -6.821 -0.932 150 20 100 
18.901 -6.76 -0.932 150 20 100 
18.92 -6.7 -0.932 150 20 100 
18.932 -6.637 -0.931 150 20 100 
18.949 -6.577 -0.931 150 20 100 
18.965 -6.549 -0.931 150 20 100 
18.989 -6.49 -0.932 150 20 100 
19.007 -6.43 -0.932 150 20 100 
19.037 -6.374 -0.932 150 20 100 
19.057 -6.314 -0.932 150 20 100 
19.143 -6.276 -0.936 150 20 100 
19.352 -6.277 -0.947 150 20 100 
19.191 -6.192 -0.937 150 20 100 
23.389 -7.309 -1.183 68 220 186 
23.454 -7.249 -1.185 68 220 186 
23.547 -7.197 -1.189 68 220 186 
14.871 -1.015 -0.64 41 125 238 
14.646 -0.976 -0.627 41 125 238 
14.419 -0.915 -0.614 41 125 238 
14.185 -0.855 -0.601 41 125 238 
13.986 -0.799 -0.589 41 125 238 
12.524 -0.377 -0.506 41 125 238 
12.465 -0.336 -0.502 41 125 238 
12.4 -0.315 -0.498 41 125 238 
12.642 -0.282 -0.512 41 125 238 
13.802 -0.18 -0.578 41 125 238 
12.357 -0.12 -0.496 41 125 238 
12.433 -0.081 -0.5 41 125 238 
12.432 -0.062 -0.5 41 125 238 
12.595 -0.023 -0.509 41 125 238 
12.339 0.001 -0.561 41 125 238 
12.355 0.02 -0.562 41 125 238 
12.345 0.059 -0.561 41 125 238 
12.353 0.098 -0.562 41 125 238 
12.368 0.137 -0.563 41 125 238 
12.352 0.176 -0.562 41 125 238 
12.373 0.215 -0.563 41 125 238 
12.368 0.254 -0.563 41 125 238 
12.382 0.273 -0.564 41 125 238 
12.367 0.312 -0.563 41 125 238 
12.394 0.352 -0.564 41 125 238 
12.393 0.391 -0.564 41 125 238 
12.407 0.43 -0.565 41 125 238 
12.436 0.47 -0.567 41 125 238 
12.42 0.509 -0.566 41 125 238 
12.439 0.529 -0.568 41 125 238 
12.432 0.568 -0.567 41 125 238 
12.434 0.607 -0.567 41 125 238 
12.436 0.647 -0.568 41 125 238 
12.444 0.686 -0.568 41 125 238 
12.465 0.727 -0.57 41 125 238 
12.475 0.767 -0.571 41 125 238 
12.492 0.787 -0.572 41 125 238 
12.505 0.828 -0.573 41 125 238 
12.568 0.872 -0.577 41 125 238 
12.657 0.918 -0.582 41 125 238 
12.918 1.019 -0.599 41 125 238 
12.7 1.042 -0.586 41 125 238 
17.732 1.493 -0.898 58 242 25 
17.6 1.537 -0.89 58 242 25 
17.46 1.58 -0.882 58 242 25 
17.304 1.62 -0.872 58 242 25 
8.493 0.836 -0.325 122 163 44 
8.435 0.857 -0.322 122 163 44 
8.352 0.861 -0.317 122 163 44 
8.296 0.882 -0.313 122 163 44 
7.038 1.206 -0.239 122 163 44 
8.001 1.846 -0.305 122 163 44 
7.969 1.852 -0.303 122 163 44 
7.809 2.314 -0.301 122 163 44 
15.404 5.42 -0.807 171 216 61 
15.136 5.432 -0.792 171 216 61 
15.209 5.513 -0.798 171 216 61 
10.098 3.687 -0.462 127 49 243 
10.025 3.678 -0.458 127 49 243 
15.096 5.606 -0.794 171 216 61 
15.058 5.646 -0.792 171 216 61 
15.063 5.756 -0.795 171 216 61 
14.83 5.774 -0.782 171 216 61 
14.884 5.822 -0.786 171 216 61 
14.726 5.813 -0.777 171 216 61 
14.78 5.888 -0.782 171 216 61 
12.774 5.179 -0.65 171 216 61 
14.593 6.027 -0.774 171 216 61 
14.539 6.031 -0.771 171 216 61 
14.424 6.09 -0.766 171 216 61 
11.954 5.087 -0.601 171 216 61 
12.213 5.289 -0.621 171 216 61 
12.139 5.324 -0.617 171 216 61 
12.153 5.376 -0.619 171 216 61 
12.208 5.493 -0.625 171 216 61 
12.164 5.519 -0.624 171 216 61 
12.148 5.558 -0.624 171 216 61 
12.216 5.635 -0.63 171 216 61 
12.019 5.567 -0.617 171 216 61 
13.775 6.438 -0.738 171 216 61 
12.312 5.798 -0.639 171 216 61 
13.902 6.604 -0.749 171 216 61 
13.602 6.566 -0.732 171 216 61 
13.775 6.703 -0.745 171 216 61 
13.466 6.631 -0.726 171 216 61 
13.434 6.668 -0.725 171 216 61 
8.29 4.136 -0.371 127 49 243 
8.233 4.14 -0.367 127 49 243 
8.209 4.16 -0.367 127 49 243 
8.157 4.166 -0.364 127 49 243 
8.147 4.177 -0.364 240 204 244 
13.499 6.994 -0.738 171 216 61 
13.405 6.998 -0.733 171 216 61 
13.11 6.949 -0.715 171 216 61 
12.995 6.94 -0.709 171 216 61 
13.089 7.07 -0.718 171 216 61 
13.081 7.119 -0.719 171 216 61 
13.035 7.147 -0.717 171 216 61 
13.011 7.241 -0.718 171 216 61 
12.988 7.281 -0.718 171 216 61 
12.979 7.33 -0.719 171 216 61 
12.956 7.343 -0.719 171 216 61 
12.714 7.259 -0.703 171 216 61 
12.66 7.334 -0.702 27 177 120 
12.647 7.38 -0.703 27 177 120 
12.615 7.414 -0.703 27 177 120 
12.51 7.432 -0.697 27 177 120 
12.545 7.506 -0.702 27 177 120 
12.328 7.482 -0.689 27 177 120 
12.295 7.514 -0.689 27 177 120 
12.144 7.474 -0.679 27 177 120 
12.14 7.578 -0.683 27 177 120 
12.091 7.573 -0.68 27 177 120 
12.155 7.667 -0.686 27 177 120 
7.016 4.443 -0.311 240 204 244 
6.98 4.451 -0.31 240 204 244 
6.948 4.461 -0.308 240 204 244 
6.922 4.475 -0.307 240 204 244 
6.879 4.479 -0.305 240 204 244 
6.857 4.479 -0.304 240 204 244 
6.815 4.482 -0.302 240 204 244 
9.286 6.16 -0.487 127 49 243 
9.281 6.2 -0.488 127 49 243 
9.27 6.234 -0.488 127 49 243 
9.272 6.278 -0.49 127 49 243 
11.647 7.921 -0.669 194 6 90 
11.617 7.954 -0.668 194 6 90 
11.589 7.989 -0.668 194 6 90 
11.631 8.072 -0.673 194 6 90 
11.511 8.042 -0.666 194 6 90 
11.528 8.108 -0.669 194 6 90 
11.462 8.115 -0.666 194 6 90 
11.478 8.154 -0.668 194 6 90 
11.423 8.169 -0.666 194 6 90 
11.456 8.247 -0.671 194 6 90 
11.461 8.305 -0.673 194 6 90 
11.438 8.344 -0.673 194 6 90 
11.39 8.364 -0.672 194 6 90 
11.308 8.358 -0.667 194 6 90 
11.327 8.4 -0.67 194 6 90 
11.382 8.496 -0.676 194 6 90 
11.401 8.567 -0.68 194 6 90 
11.284 8.534 -0.673 194 6 90 
11.262 8.573 -0.673 194 6 90 
11.238 8.611 -0.673 194 6 90 
11.217 8.651 -0.674 194 6 90 
11.19 8.686 -0.674 194 6 90 
11.209 8.729 -0.676 194 6 90 
11.193 8.773 -0.677 194 6 90 
11.229 8.859 -0.682 194 6 90 
11.192 8.887 -0.681 194 6 90 
11.229 8.975 -0.687 27 177 120 
11.167 8.982 -0.684 27 177 120 
11.151 9.027 -0.685 27 177 120 
11.135 9.044 -0.685 27 177 120 
11.179 9.138 -0.691 27 177 120 
11.206 9.219 -0.695 27 177 120 
11.149 9.231 -0.693 27 177 120 
7.827 -6.542 -0.428 147 173 117 
7.887 -6.551 -0.432 147 173 117 
7.976 -6.582 -0.437 147 173 117 
8.024 -6.579 -0.439 147 173 117 
8.115 -6.61 -0.445 147 173 117 
8.174 -6.616 -0.448 147 173 117 
8.25 -6.634 -0.452 147 173 117 
8.308 -6.66 -0.456 147 173 117 
8.379 -6.673 -0.46 147 173 117 
8.4 -6.647 -0.46 147 173 117 
8.506 -6.687 -0.467 147 173 117 
8.611 -6.725 -0.473 147 173 117 
8.75 -6.79 -0.483 147 173 117 
8.784 -6.772 -0.484 147 173 117 
8.83 -6.785 -0.486 147 173 117 
8.908 -6.8 -0.491 147 173 117 
9.116 -6.913 -0.505 147 173 117 
9.09 -6.848 -0.501 147 173 117 
9.162 -6.858 -0.505 147 173 117 
9.283 -6.903 -0.513 147 173 117 
9.319 -6.884 -0.514 147 173 117 
9.417 -6.933 -0.521 147 173 117 
9.512 -6.957 -0.526 158 234 187 
9.692 -7.041 -0.538 158 234 187 
9.686 -6.991 -0.536 158 234 187 
9.695 -6.951 -0.535 158 234 187 
9.831 -7.002 -0.544 158 234 187 
10.041 -7.103 -0.558 158 234 187 
10.067 -7.097 -0.559 158 234 187 
10.154 -7.111 -0.564 158 234 187 
10.246 -7.127 -0.569 158 234 187 
10.345 -7.148 -0.575 158 234 187 
10.407 -7.143 -0.578 158 234 187 
10.535 -7.182 -0.586 158 234 187 
10.657 -7.215 -0.594 158 234 187 
10.685 -7.21 -0.595 158 234 187 
10.737 -7.196 -0.597 158 234 187 
10.993 -7.317 -0.614 158 234 187 
11.083 -7.326 -0.619 158 234 187 
11.147 -7.319 -0.622 158 234 187 
11.301 -7.368 -0.632 158 234 187 
11.366 -7.36 -0.635 158 234 187 
11.549 -7.452 -0.648 158 234 187 
11.685 -7.488 -0.656 158 234 187 
11.803 -7.511 -0.663 158 234 187 
11.855 -7.492 -0.665 158 234 187 
12.058 -7.567 -0.678 158 234 187 
12.156 -7.575 -0.683 158 234 187 
12.095 -7.484 -0.677 158 234 187 
12.321 -7.597 -0.693 158 234 187 
12.589 -7.707 -0.71 158 234 187 
12.756 -7.754 -0.721 158 234 187 
13.105 -7.909 -0.744 225 82 220 
13.18 -7.898 -0.748 225 82 220 
13.304 -7.915 -0.755 225 82 220 
13.305 -7.859 -0.753 225 82 220 
13.362 -7.865 -0.756 225 82 220 
13.347 -7.8 -0.754 225 82 220 
13.442 -7.799 -0.759 225 82 220 
13.475 -7.761 -0.759 225 82 220 
13.587 -7.768 -0.766 225 82 220 
13.752 -7.805 -0.776 225 82 220 
13.928 -7.847 -0.786 225 82 220 
14.093 -7.911 -0.797 225 82 220 
14.333 -7.986 -0.812 225 82 220 
14.532 -8.037 -0.825 225 82 220 
14.728 -8.084 -0.837 225 82 220 
14.895 -8.115 -0.847 225 82 220 
15.112 -8.171 -0.86 225 82 220 
15.282 -8.201 -0.87 225 82 220 
15.478 -8.275 -0.883 225 82 220 
15.675 -8.316 -0.895 150 20 100 
15.858 -8.35 -0.906 150 20 100 
16.104 -8.414 -0.921 150 20 100 
16.322 -8.463 -0.935 150 20 100 
16.537 -8.508 -0.948 150 20 100 
16.763 -8.557 -0.962 150 20 100 
16.997 -8.643 -0.977 150 20 100 
17.227 -8.691 -0.991 150 20 100 
17.483 -8.751 -1.007 150 20 100 
17.738 -8.809 -1.022 150 20 100 
17.982 -8.86 -1.037 150 20 100 
18.254 -8.922 -1.054 150 20 100 
18.523 -8.981 -1.071 150 20 100 
18.808 -9.083 -1.089 150 20 100 
19.102 -9.15 -1.108 150 20 100 
19.349 -9.193 -1.122 150 20 100 
19.096 -9 -1.103 150 20 100 
19.196 -8.974 -1.108 150 20 100 
20.317 -9.418 -1.183 150 20 100 
20.653 -9.495 -1.203 150 20 100 
20.973 -9.602 -1.224 150 20 100 
21.299 -9.67 -1.244 150 20 100 
21.665 -9.753 -1.267 150 20 100 
22.029 -9.834 -1.29 150 20 100 
22.4 -9.915 -1.313 150 20 100 
22.793 -10.003 -1.337 150 20 100 
23.19 -10.09 -1.362 68 220 186 
23.602 -10.224 -1.388 68 220 186 
24.052 -10.329 -1.417 68 220 186 
24.527 -10.442 -1.446 68 220 186 
25.004 -10.551 -1.476 68 220 186 
18.764 -7.41 -1.045 150 20 100 
18.796 -7.354 -1.046 150 20 100 
18.859 -7.31 -1.048 150 20 100 
18.842 -7.27 -1.047 150 20 100 
18.88 -7.216 -1.048 150 20 100 
18.876 -7.147 -1.046 150 20 100 
18.91 -7.092 -1.047 150 20 100 
18.904 -7.022 -1.045 150 20 100 
18.946 -6.97 -1.046 150 20 100 
18.955 -6.906 -1.045 150 20 100 
18.943 -6.868 -1.044 150 20 100 
18.982 -6.815 -1.045 150 20 100 
19.005 -6.756 -1.045 150 20 100 
19.026 -6.696 -1.045 150 20 100 
19.034 -6.631 -1.044 150 20 100 
19.051 -6.57 -1.044 150 20 100 
19.07 -6.51 -1.044 150 20 100 
19.074 -6.478 -1.043 150 20 100 
19.096 -6.419 -1.044 150 20 100 
19.069 -6.343 -1.04 150 20 100 
19.077 -6.279 -1.04 150 20 100 
19.063 -6.208 -1.038 150 20 100 
19.076 -6.146 -1.037 150 20 100 
19.139 -6.1 -1.04 150 20 100 
19.292 -6.115 -1.049 150 20 100 
23.434 -7.342 -1.316 68 220 186 
23.501 -7.282 -1.319 68 220 186 
23.562 -7.219 -1.322 68 220 186 
15.236 -1.119 -0.742 41 125 238 
14.899 -1.048 -0.721 41 125 238 
14.665 -0.986 -0.707 41 125 238 
14.405 -0.923 -0.69 41 125 238 
14.175 -0.864 -0.676 41 125 238 
13.977 -0.831 -0.664 41 125 238 
13.764 -0.775 -0.65 41 125 238 
13.599 -0.723 -0.64 41 125 238 
13.4 -0.671 -0.627 41 125 238 
13.253 -0.622 -0.618 41 125 238 
13.081 -0.573 -0.607 41 125 238 
12.937 -0.526 -0.598 41 125 238 
12.81 -0.501 -0.59 41 125 238 
12.708 -0.457 -0.584 41 125 238 
12.59 -0.414 -0.577 41 125 238 
12.519 -0.372 -0.572 41 125 238 
12.426 -0.331 -0.566 41 125 238 
12.401 -0.291 -0.565 41 125 238 
12.362 -0.251 -0.562 41 125 238 
12.361 -0.232 -0.562 41 125 238 
12.353 -0.193 -0.562 41 125 238 
12.348 -0.154 -0.561 41 125 238 
12.344 -0.115 -0.561 41 125 238 
12.339 -0.076 -0.561 41 125 238 
12.341 -0.038 -0.561 41 125 238 
12.274 0.036 -0.642 41 125 238 
12.276 0.074 -0.642 41 125 238 
12.275 0.094 -0.642 41 125 238 
12.281 0.132 -0.643 41 125 238 
12.295 0.171 -0.644 41 125 238 
12.314 0.21 -0.645 41 125 238 
12.331 0.249 -0.646 41 125 238 
12.34 0.288 -0.647 41 125 238 
12.265 0.325 -0.642 41 125 238 
12.267 0.344 -0.642 41 125 238 
12.266 0.383 -0.642 41 125 238 
12.265 0.421 -0.642 41 125 238 
12.351 0.463 -0.648 41 125 238 
12.397 0.503 -0.652 41 125 238 
12.328 0.54 -0.647 41 125 238 
12.392 0.581 -0.651 41 125 238 
12.255 0.594 -0.642 41 125 238 
12.624 0.651 -0.668 41 125 238 
12.435 0.681 -0.655 41 125 238 
12.444 0.721 -0.656 41 125 238 
12.45 0.76 -0.656 41 125 238 
12.477 0.801 -0.658 41 125 238 
12.493 0.842 -0.659 41 125 238 
12.636 0.911 -0.67 41 125 238 
12.514 0.942 -0.661 41 125 238 
12.415 0.974 -0.655 41 125 238 
12.539 1.023 -0.663 41 125 238 
17.746 1.493 -1.023 58 242 25 
17.483 1.527 -1.005 58 242 25 
8.463 0.819 -0.383 122 163 44 
8.375 0.838 -0.377 122 163 44 
8.289 0.856 -0.371 122 163 44 
7.044 1.216 -0.29 122 163 44 
7.012 1.233 -0.288 122 163 44 
6.997 1.242 -0.287 122 163 44 
8.625 1.693 -0.403 122 163 44 
7.838 2.218 -0.358 122 163 44 
7.832 2.229 -0.358 122 163 44 
7.796 2.352 -0.358 122 163 44 
14.402 5.149 -0.85 171 216 61 
14.23 5.138 -0.839 171 216 61 
10.055 3.675 -0.534 127 49 243 
9.993 3.688 -0.531 127 49 243 
14.208 5.308 -0.841 171 216 61 
14.15 5.337 -0.838 171 216 61 
14.023 5.339 -0.83 171 216 61 
14.098 5.418 -0.837 171 216 61 
14.261 5.532 -0.85 171 216 61 
13.91 5.498 -0.827 171 216 61 
13.9 5.519 -0.827 171 216 61 
13.772 5.569 -0.82 171 216 61 
9.39 3.84 -0.496 127 49 243 
13.722 5.649 -0.819 171 216 61 
13.882 5.765 -0.832 171 216 61 
9.248 3.885 -0.488 127 49 243 
12.535 5.278 -0.734 171 216 61 
12.661 5.378 -0.744 171 216 61 
12.358 5.342 -0.724 171 216 61 
12.412 5.458 -0.731 171 216 61 
12.068 5.352 -0.706 171 216 61 
8.88 3.963 -0.467 127 49 243 
12.028 5.403 -0.705 171 216 61 
12.042 5.454 -0.707 171 216 61 
11.909 5.485 -0.7 171 216 61 
11.974 5.606 -0.708 171 216 61 
11.985 5.634 -0.709 171 216 61 
12.911 6.117 -0.781 171 216 61 
11.867 5.67 -0.703 171 216 61 
11.887 5.725 -0.706 171 216 61 
12.116 5.882 -0.725 171 216 61 
11.968 5.904 -0.716 171 216 61 
8.27 4.105 -0.433 127 49 243 
12.659 6.317 -0.771 171 216 61 
8.184 4.126 -0.428 240 204 244 
8.18 4.157 -0.429 240 204 244 
12.508 6.49 -0.767 171 216 61 
12.439 6.528 -0.764 171 216 61 
12.418 6.567 -0.764 171 216 61 
12.44 6.629 -0.768 171 216 61 
12.334 6.622 -0.761 171 216 61 
12.35 6.681 -0.764 171 216 61 
12.331 6.721 -0.764 171 216 61 
12.226 6.689 -0.757 171 216 61 
12.224 6.737 -0.758 171 216 61 
12.234 6.793 -0.761 171 216 61 
12.27 6.914 -0.767 171 216 61 
12.281 6.971 -0.769 171 216 61 
12.29 7.027 -0.772 27 177 120 
12.31 7.116 -0.776 27 177 120 
12.293 7.158 -0.777 27 177 120 
12.283 7.203 -0.778 27 177 120 
12.32 7.329 -0.784 27 177 120 
11.935 7.152 -0.755 194 6 90 
12.095 7.3 -0.77 27 177 120 
11.908 7.212 -0.756 194 6 90 
11.875 7.244 -0.755 194 6 90 
11.871 7.292 -0.756 194 6 90 
11.894 7.358 -0.76 194 6 90 
11.882 7.403 -0.761 194 6 90 
11.866 7.444 -0.762 194 6 90 
11.876 7.476 -0.763 194 6 90 
11.837 7.556 -0.764 194 6 90 
11.763 7.561 -0.76 194 6 90 
9.24 6.028 -0.557 127 49 243 
9.266 6.087 -0.561 127 49 243 
11.671 7.685 -0.759 194 6 90 
9.286 6.205 -0.566 127 49 243 
9.262 6.23 -0.566 127 49 243 
9.431 6.387 -0.582 127 49 243 
11.598 7.954 -0.765 194 6 90 
11.605 7.986 -0.767 194 6 90 
11.533 7.989 -0.763 194 6 90 
11.48 8.006 -0.761 194 6 90 
11.469 8.052 -0.762 194 6 90 
11.457 8.097 -0.763 194 6 90 
11.435 8.136 -0.763 194 6 90 
11.443 8.196 -0.766 194 6 90 
11.44 8.248 -0.768 194 6 90 
11.375 8.229 -0.764 194 6 90 
11.351 8.266 -0.764 194 6 90 
11.351 8.32 -0.766 194 6 90 
11.318 8.351 -0.766 194 6 90 
11.317 8.405 -0.768 194 6 90 
11.401 8.523 -0.777 194 6 90 
11.253 8.495 -0.768 194 6 90 
11.202 8.513 -0.766 194 6 90 
11.158 8.534 -0.764 194 6 90 
11.166 8.596 -0.767 194 6 90 
6.039 4.694 -0.324 240 204 244 
6.003 4.697 -0.322 240 204 244 
5.981 4.71 -0.322 240 204 244 
5.967 4.714 -0.321 240 204 244 
5.927 4.713 -0.319 240 204 244 
5.901 4.723 -0.318 240 204 244 
5.888 4.743 -0.318 240 204 244 
5.865 4.755 -0.317 240 204 244 
11.112 9.182 -0.79 27 177 120 
7.833 -6.519 -0.499 147 173 117 
7.866 -6.504 -0.5 147 173 117 
8.029 -6.619 -0.514 147 173 117 
7.993 -6.547 -0.509 147 173 117 
8.222 -6.693 -0.527 147 173 117 
8.152 -6.592 -0.519 147 173 117 
8.228 -6.612 -0.524 147 173 117 
8.308 -6.633 -0.529 147 173 117 
8.354 -6.627 -0.532 147 173 117 
8.391 -6.635 -0.534 147 173 117 
8.496 -6.676 -0.541 147 173 117 
8.585 -6.702 -0.547 147 173 117 
8.642 -6.703 -0.55 147 173 117 
8.881 -6.844 -0.569 147 173 117 
8.826 -6.758 -0.563 147 173 117 
8.89 -6.763 -0.566 147 173 117 
9.077 -6.883 -0.582 147 173 117 
9.06 -6.826 -0.578 147 173 117 
9.138 -6.839 -0.583 147 173 117 
9.237 -6.869 -0.59 147 173 117 
9.291 -6.864 -0.593 147 173 117 
9.39 -6.891 -0.599 147 173 117 
9.537 -6.954 -0.61 147 173 117 
9.717 -7.062 -0.624 158 234 187 
9.652 -6.969 -0.617 158 234 187 
9.738 -6.985 -0.622 158 234 187 
9.851 -7.019 -0.63 158 234 187 
9.948 -7.042 -0.636 158 234 187 
10.014 -7.041 -0.64 158 234 187 
10.128 -7.074 -0.648 158 234 187 
10.211 -7.108 -0.654 158 234 187 
10.328 -7.142 -0.662 158 234 187 
10.355 -7.113 -0.662 158 234 187 
10.506 -7.169 -0.673 158 234 187 
10.642 -7.213 -0.682 158 234 187 
10.754 -7.24 -0.69 158 234 187 
10.85 -7.255 -0.696 158 234 187 
10.911 -7.271 -0.7 158 234 187 
10.985 -7.271 -0.704 158 234 187 
11.099 -7.297 -0.712 158 234 187 
11.247 -7.344 -0.722 158 234 187 
11.418 -7.405 -0.734 158 234 187 
11.538 -7.432 -0.742 158 234 187 
11.634 -7.442 -0.748 158 234 187 
11.548 -7.361 -0.74 158 234 187 
11.781 -7.459 -0.757 158 234 187 
11.766 -7.397 -0.754 158 234 187 
11.806 -7.371 -0.755 158 234 187 
11.941 -7.403 -0.765 158 234 187 
11.991 -7.382 -0.767 158 234 187 
12.077 -7.383 -0.772 158 234 187 
12.147 -7.4 -0.776 158 234 187 
12.323 -7.455 -0.789 158 234 187 
12.47 -7.49 -0.799 158 234 187 
12.639 -7.538 -0.81 225 82 220 
12.824 -7.594 -0.823 225 82 220 
12.974 -7.629 -0.833 225 82 220 
13.129 -7.665 -0.844 225 82 220 
13.267 -7.718 -0.854 225 82 220 
13.422 -7.752 -0.864 225 82 220 
13.587 -7.79 -0.875 225 82 220 
13.748 -7.826 -0.886 225 82 220 
13.911 -7.861 -0.897 225 82 220 
14.101 -7.911 -0.91 225 82 220 
14.257 -7.939 -0.921 225 82 220 
14.435 -8.009 -0.934 225 82 220 
14.594 -8.038 -0.944 225 82 220 
14.787 -8.084 -0.957 225 82 220 
14.967 -8.122 -0.969 225 82 220 
15.166 -8.169 -0.983 225 82 220 
15.359 -8.211 -0.996 225 82 220 
15.58 -8.267 -1.011 225 82 220 
15.744 -8.322 -1.023 150 20 100 
15.965 -8.375 -1.038 150 20 100 
16.18 -8.424 -1.053 150 20 100 
16.398 -8.472 -1.068 150 20 100 
16.616 -8.519 -1.083 150 20 100 
16.859 -8.578 -1.099 150 20 100 
17.089 -8.627 -1.115 150 20 100 
17.325 -8.713 -1.132 150 20 100 
17.569 -8.767 -1.149 150 20 100 
17.814 -8.82 -1.166 150 20 100 
18.082 -8.882 -1.184 150 20 100 
18.353 -8.944 -1.203 150 20 100 
18.625 -9.005 -1.221 150 20 100 
18.93 -9.079 -1.242 150 20 100 
19.179 -9.162 -1.26 150 20 100 
19.279 -9.136 -1.266 150 20 100 
19.055 -8.956 -1.247 150 20 100 
20.135 -9.388 -1.326 150 20 100 
20.427 -9.447 -1.346 150 20 100 
20.748 -9.517 -1.368 150 20 100 
21.07 -9.585 -1.391 150 20 100 
21.394 -9.692 -1.414 150 20 100 
21.75 -9.771 -1.438 150 20 100 
22.122 -9.855 -1.464 150 20 100 
22.475 -9.929 -1.488 150 20 100 
22.894 -10.028 -1.518 150 20 100 
18.687 -7.422 -1.181 150 20 100 
18.694 -7.356 -1.18 150 20 100 
18.726 -7.301 -1.181 150 20 100 
18.751 -7.243 -1.181 150 20 100 
18.768 -7.182 -1.18 150 20 100 
18.764 -7.147 -1.179 150 20 100 
18.777 -7.084 -1.179 150 20 100 
18.798 -7.025 -1.179 150 20 100 
18.812 -6.963 -1.178 150 20 100 
18.826 -6.901 -1.177 150 20 100 
18.842 -6.84 -1.177 150 20 100 
18.854 -6.777 -1.176 150 20 100 
18.861 -6.746 -1.176 150 20 100 
18.888 -6.689 -1.177 150 20 100 
18.9 -6.626 -1.176 150 20 100 
18.92 -6.567 -1.176 150 20 100 
18.939 -6.506 -1.176 150 20 100 
18.929 -6.437 -1.173 150 20 100 
18.972 -6.385 -1.175 150 20 100 
18.991 -6.358 -1.176 150 20 100 
18.998 -6.294 -1.175 150 20 100 
19.004 -6.23 -1.174 150 20 100 
19.012 -6.167 -1.173 150 20 100 
19.026 -6.105 -1.173 150 20 100 
19.095 -6.061 -1.176 150 20 100 
21.226 -6.667 -1.329 68 220 186 
15.246 -1.162 -0.85 41 125 238 
15.073 -1.124 -0.838 41 125 238 
14.71 -1.05 -0.813 41 125 238 
14.548 -0.992 -0.801 41 125 238 
14.301 -0.93 -0.784 41 125 238 
14.063 -0.87 -0.767 41 125 238 
13.836 -0.812 -0.751 41 125 238 
13.62 -0.756 -0.736 41 125 238 
13.439 -0.724 -0.724 41 125 238 
13.258 -0.672 -0.711 41 125 238 
13.089 -0.622 -0.699 41 125 238 
12.941 -0.574 -0.689 41 125 238 
12.802 -0.527 -0.679 41 125 238 
12.67 -0.482 -0.67 41 125 238 
12.557 -0.438 -0.662 41 125 238 
12.472 -0.415 -0.656 41 125 238 
12.392 -0.373 -0.651 41 125 238 
12.359 -0.333 -0.649 41 125 238 
12.33 -0.294 -0.646 41 125 238 
12.293 -0.254 -0.644 41 125 238 
12.292 -0.215 -0.644 41 125 238 
12.282 -0.176 -0.643 41 125 238 
12.291 -0.157 -0.644 41 125 238 
12.263 -0.118 -0.642 41 125 238 
12.264 -0.08 -0.642 41 125 238 
12.258 -0.041 -0.641 41 125 238 
12.264 -0.003 -0.642 41 125 238 
12.306 0.019 -0.705 41 125 238 
12.327 0.058 -0.707 41 125 238 
12.387 0.117 -0.711 41 125 238 
12.297 0.154 -0.705 41 125 238 
12.322 0.193 -0.707 41 125 238 
12.323 0.232 -0.707 41 125 238 
12.362 0.272 -0.71 41 125 238 
12.338 0.31 -0.708 41 125 238 
12.343 0.349 -0.708 41 125 238 
12.352 0.369 -0.709 41 125 238 
12.373 0.408 -0.711 41 125 238 
12.467 0.451 -0.718 41 125 238 
12.384 0.486 -0.712 41 125 238 
12.382 0.525 -0.712 41 125 238 
12.381 0.564 -0.712 41 125 238 
12.359 0.602 -0.71 41 125 238 
12.589 0.634 -0.727 41 125 238 
12.489 0.668 -0.72 41 125 238 
12.505 0.708 -0.721 41 125 238 
12.533 0.749 -0.724 41 125 238 
12.564 0.791 -0.726 41 125 238 
12.581 0.832 -0.728 41 125 238 
12.601 0.873 -0.729 41 125 238 
12.611 0.893 -0.73 41 125 238 
12.642 0.936 -0.733 41 125 238 
12.657 0.977 -0.734 41 125 238 
12.672 1.018 -0.735 41 125 238 
12.923 1.079 -0.754 41 125 238 
17.723 1.546 -1.109 58 242 25 
8.701 0.773 -0.442 41 125 238 
8.612 0.779 -0.436 41 125 238 
8.532 0.798 -0.43 122 163 44 
8.439 0.816 -0.423 122 163 44 
8.373 0.836 -0.418 122 163 44 
8.364 0.862 -0.418 122 163 44 
7.637 1.028 -0.366 122 163 44 
7.589 1.046 -0.363 122 163 44 
7.534 1.062 -0.359 122 163 44 
7.023 1.203 -0.323 122 163 44 
6.982 1.219 -0.321 122 163 44 
6.963 1.226 -0.319 122 163 44 
6.973 1.251 -0.32 122 163 44 
8.621 1.693 -0.446 122 163 44 
8.624 1.708 -0.446 122 163 44 
8.632 1.737 -0.447 122 163 44 
8.63 1.765 -0.447 122 163 44 
8.646 1.797 -0.449 122 163 44 
8.652 1.827 -0.45 122 163 44 
8.641 1.853 -0.45 122 163 44 
8.648 1.883 -0.451 122 163 44 
8.661 1.9 -0.452 122 163 44 
8.669 1.93 -0.453 122 163 44 
8.039 1.841 -0.406 122 163 44 
8.025 1.864 -0.405 122 163 44 
8.025 1.891 -0.406 122 163 44 
8.038 1.921 -0.407 122 163 44 
8.055 1.938 -0.409 122 163 44 
8.052 1.964 -0.409 122 163 44 
8.09 2.055 -0.413 122 163 44 
8.066 2.076 -0.412 122 163 44 
8.086 2.108 -0.414 122 163 44 
7.913 2.236 -0.404 122 163 44 
7.944 2.258 -0.407 122 163 44 
7.914 2.277 -0.405 122 163 44 
7.895 2.298 -0.404 122 163 44 
7.881 2.375 -0.405 122 163 44 
7.097 2.519 -0.353 240 204 244 
13.732 4.998 -0.875 171 216 61 
13.679 5.027 -0.872 171 216 61 
13.693 5.081 -0.875 171 216 61 
13.625 5.104 -0.871 171 216 61 
13.632 5.18 -0.873 171 216 61 
9.825 3.761 -0.574 127 49 243 
13.544 5.244 -0.869 171 216 61 
13.741 5.371 -0.886 171 216 61 
13.423 5.295 -0.862 171 216 61 
13.318 5.301 -0.855 171 216 61 
13.343 5.336 -0.857 171 216 61 
13.309 5.371 -0.856 171 216 61 
13.274 5.405 -0.855 171 216 61 
13.29 5.46 -0.857 171 216 61 
9.397 3.887 -0.548 127 49 243 
9.322 3.891 -0.543 127 49 243 
9.284 3.909 -0.541 127 49 243 
13.161 5.577 -0.852 171 216 61 
13.033 5.619 -0.844 171 216 61 
13.022 5.664 -0.845 171 216 61 
12.979 5.693 -0.843 171 216 61 
12.963 5.735 -0.843 171 216 61 
12.113 5.402 -0.776 171 216 61 
12.141 5.438 -0.779 171 216 61 
11.986 5.413 -0.768 171 216 61 
11.914 5.426 -0.763 171 216 61 
11.926 5.477 -0.765 171 216 61 
11.853 5.488 -0.761 171 216 61 
12.655 5.91 -0.828 171 216 61 
11.987 5.643 -0.775 171 216 61 
12.598 5.956 -0.825 171 216 61 
8.588 4.084 -0.499 127 49 243 
12.104 5.815 -0.788 171 216 61 
12.434 6.022 -0.816 171 216 61 
12.46 6.083 -0.82 171 216 61 
12.321 6.063 -0.81 171 216 61 
12.359 6.13 -0.815 171 216 61 
8.348 4.148 -0.485 127 49 243 
8.181 4.129 -0.474 240 204 244 
8.248 4.195 -0.48 127 49 243 
8.161 4.183 -0.474 240 204 244 
12.182 6.307 -0.809 171 216 61 
12.192 6.361 -0.812 171 216 61 
12.088 6.379 -0.806 171 216 61 
12.064 6.415 -0.805 171 216 61 
11.991 6.473 -0.803 171 216 61 
12.026 6.541 -0.807 171 216 61 
11.964 6.555 -0.804 171 216 61 
11.87 6.577 -0.798 171 216 61 
11.853 6.616 -0.799 194 6 90 
11.875 6.678 -0.802 194 6 90 
11.835 6.704 -0.801 194 6 90 
11.823 6.746 -0.801 194 6 90 
11.739 6.748 -0.796 194 6 90 
11.737 6.771 -0.797 194 6 90 
11.69 6.793 -0.795 194 6 90 
11.717 6.858 -0.799 194 6 90 
11.64 6.862 -0.794 194 6 90 
11.701 6.948 -0.801 194 6 90 
11.691 6.991 -0.802 194 6 90 
11.658 7.046 -0.802 194 6 90 
11.671 7.105 -0.805 194 6 90 
11.673 7.156 -0.807 194 6 90 
11.734 7.296 -0.817 194 6 90 
11.769 7.369 -0.822 194 6 90 
11.756 7.412 -0.823 194 6 90 
11.747 7.433 -0.823 194 6 90 
11.737 7.478 -0.824 194 6 90 
11.645 7.471 -0.818 194 6 90 
9.328 6.062 -0.618 127 49 243 
9.319 6.097 -0.619 127 49 243 
9.32 6.14 -0.621 127 49 243 
11.316 7.512 -0.799 194 6 90 
9.334 6.255 -0.626 127 49 243 
9.3 6.274 -0.625 127 49 243 
9.336 6.342 -0.63 127 49 243 
11.335 7.811 -0.813 194 6 90 
11.343 7.869 -0.816 194 6 90 
11.331 7.887 -0.816 194 6 90 
11.288 7.91 -0.814 194 6 90 
11.31 7.979 -0.818 194 6 90 
11.275 8.008 -0.818 194 6 90 
11.265 8.053 -0.819 194 6 90 
11.312 8.196 -0.828 194 6 90 
11.361 8.258 -0.833 194 6 90 
11.319 8.282 -0.832 194 6 90 
11.256 8.29 -0.829 194 6 90 
11.311 8.386 -0.836 194 6 90 
11.299 8.432 -0.837 194 6 90 
11.274 8.469 -0.838 194 6 90 
11.258 8.54 -0.84 194 6 90 
11.261 8.599 -0.843 194 6 90 
11.202 8.61 -0.84 194 6 90 
11.175 8.645 -0.84 194 6 90 
11.147 8.736 -0.842 194 6 90 
11.193 8.829 -0.849 27 177 120 
11.209 8.87 -0.852 27 177 120 
11.197 8.918 -0.853 27 177 120 
11.215 9.048 -0.86 27 177 120 
11.23 9.119 -0.864 27 177 120 
11.089 9.062 -0.854 27 177 120 
11.029 9.071 -0.851 27 177 120 
11.092 9.152 -0.858 27 177 120 
7.817 -6.536 -0.549 147 173 117 
7.984 -6.632 -0.563 147 173 117 
7.955 -6.566 -0.558 147 173 117 
8.046 -6.619 -0.566 147 173 117 
8.099 -6.62 -0.569 147 173 117 
8.16 -6.627 -0.573 147 173 117 
8.36 -6.745 -0.59 147 173 117 
8.306 -6.659 -0.583 147 173 117 
8.413 -6.701 -0.591 147 173 117 
8.415 -6.66 -0.589 147 173 117 
8.479 -6.689 -0.594 147 173 117 
8.582 -6.726 -0.602 147 173 117 
8.694 -6.77 -0.61 147 173 117 
8.782 -6.793 -0.617 147 173 117 
8.821 -6.779 -0.618 147 173 117 
8.961 -6.842 -0.629 147 173 117 
9.014 -6.838 -0.632 147 173 117 
9.062 -6.851 -0.636 147 173 117 
9.173 -6.89 -0.644 147 173 117 
9.252 -6.904 -0.649 147 173 117 
9.315 -6.905 -0.653 147 173 117 
9.417 -6.935 -0.66 147 173 117 
9.528 -6.97 -0.668 147 173 117 
9.59 -6.969 -0.672 147 173 117 
9.658 -6.995 -0.677 158 234 187 
9.787 -7.041 -0.687 158 234 187 
9.945 -7.107 -0.699 158 234 187 
9.956 -7.068 -0.698 158 234 187 
10.042 -7.082 -0.704 158 234 187 
10.154 -7.113 -0.712 158 234 187 
10.298 -7.165 -0.723 158 234 187 
10.373 -7.193 -0.729 158 234 187 
10.381 -7.15 -0.727 158 234 187 
10.486 -7.174 -0.735 158 234 187 
11.207 -7.613 -0.797 158 234 187 
10.837 -7.313 -0.762 158 234 187 
11.037 -7.398 -0.778 158 234 187 
11.115 -7.399 -0.782 158 234 187 
11.064 -7.34 -0.777 158 234 187 
11.09 -7.308 -0.777 158 234 187 
11.139 -7.29 -0.779 158 234 187 
11.132 -7.236 -0.777 158 234 187 
11.15 -7.197 -0.776 158 234 187 
11.245 -7.208 -0.783 158 234 187 
11.348 -7.224 -0.79 158 234 187 
11.466 -7.274 -0.799 158 234 187 
11.597 -7.305 -0.808 158 234 187 
11.733 -7.34 -0.818 158 234 187 
11.907 -7.396 -0.831 158 234 187 
12.054 -7.435 -0.842 158 234 187 
12.185 -7.462 -0.851 158 234 187 
12.321 -7.492 -0.861 158 234 187 
12.437 -7.536 -0.87 158 234 187 
12.578 -7.567 -0.88 225 82 220 
12.724 -7.6 -0.891 225 82 220 
12.871 -7.633 -0.901 225 82 220 
13.017 -7.664 -0.912 225 82 220 
13.169 -7.698 -0.922 225 82 220 
13.321 -7.73 -0.933 225 82 220 
13.469 -7.788 -0.945 225 82 220 
13.636 -7.827 -0.957 225 82 220 
13.799 -7.863 -0.969 225 82 220 
13.977 -7.905 -0.982 225 82 220 
14.125 -7.931 -0.992 225 82 220 
14.291 -7.965 -1.004 225 82 220 
14.508 -8.026 -1.02 225 82 220 
14.664 -8.081 -1.032 225 82 220 
14.831 -8.113 -1.044 225 82 220 
15.032 -8.161 -1.059 225 82 220 
15.214 -8.198 -1.072 225 82 220 
15.426 -8.249 -1.088 225 82 220 
15.614 -8.287 -1.101 150 20 100 
15.828 -8.336 -1.117 150 20 100 
16.032 -8.411 -1.133 150 20 100 
16.263 -8.467 -1.15 150 20 100 
16.478 -8.512 -1.165 150 20 100 
16.705 -8.563 -1.182 150 20 100 
16.949 -8.621 -1.2 150 20 100 
17.186 -8.673 -1.217 150 20 100 
17.431 -8.728 -1.235 150 20 100 
17.666 -8.81 -1.253 150 20 100 
17.91 -8.862 -1.271 150 20 100 
18.177 -8.922 -1.291 150 20 100 
18.452 -8.985 -1.311 150 20 100 
18.739 -9.051 -1.332 150 20 100 
19.045 -9.125 -1.355 150 20 100 
19.309 -9.177 -1.374 150 20 100 
19.219 -9.097 -1.365 150 20 100 
19.112 -8.973 -1.354 150 20 100 
20.238 -9.423 -1.444 150 20 100 
20.552 -9.49 -1.467 150 20 100 
20.861 -9.553 -1.489 150 20 100 
21.202 -9.628 -1.515 150 20 100 
21.543 -9.702 -1.54 150 20 100 
18.73 -7.501 -1.285 150 20 100 
18.741 -7.437 -1.284 150 20 100 
18.745 -7.371 -1.283 150 20 100 
18.768 -7.312 -1.283 150 20 100 
18.797 -7.255 -1.283 150 20 100 
18.808 -7.191 -1.282 150 20 100 
18.82 -7.128 -1.282 150 20 100 
18.823 -7.096 -1.281 150 20 100 
18.829 -7.03 -1.28 150 20 100 
18.849 -6.97 -1.279 150 20 100 
18.882 -6.915 -1.28 150 20 100 
18.909 -6.858 -1.281 150 20 100 
18.923 -6.796 -1.28 150 20 100 
18.929 -6.731 -1.279 150 20 100 
18.942 -6.702 -1.279 150 20 100 
18.963 -6.642 -1.279 150 20 100 
18.997 -6.587 -1.28 150 20 100 
19.016 -6.527 -1.28 150 20 100 
19.008 -6.458 -1.278 150 20 100 
19.04 -6.336 -1.277 150 20 100 
19.043 -6.303 -1.277 150 20 100 
19.06 -6.243 -1.277 150 20 100 
19.027 -6.166 -1.272 150 20 100 
19.268 -6.177 -1.29 150 20 100 
19.503 -6.184 -1.306 150 20 100 
15.531 -1.191 -0.946 41 125 238 
15.061 -1.108 -0.911 41 125 238 
14.872 -1.071 -0.897 41 125 238 
14.591 -1.005 -0.876 41 125 238 
14.341 -0.943 -0.858 41 125 238 
14.103 -0.884 -0.84 41 125 238 
13.873 -0.826 -0.823 41 125 238 
13.646 -0.77 -0.806 41 125 238 
13.481 -0.718 -0.793 41 125 238 
13.285 -0.687 -0.779 41 125 238 
13.124 -0.638 -0.767 41 125 238 
12.976 -0.59 -0.756 41 125 238 
12.849 -0.544 -0.746 41 125 238 
12.711 -0.499 -0.736 41 125 238 
12.613 -0.456 -0.728 41 125 238 
12.518 -0.413 -0.721 41 125 238 
12.433 -0.391 -0.715 41 125 238 
12.378 -0.35 -0.711 41 125 238 
12.393 -0.312 -0.712 41 125 238 
12.42 -0.273 -0.714 41 125 238 
12.345 -0.233 -0.708 41 125 238 
12.342 -0.194 -0.708 41 125 238 
12.337 -0.155 -0.708 41 125 238 
12.341 -0.136 -0.708 41 125 238 
12.317 -0.097 -0.706 41 125 238 
12.313 -0.058 -0.706 41 125 238 
12.304 -0.02 -0.705 41 125 238 
12.313 0.012 -0.787 41 125 238 
12.303 0.051 -0.786 41 125 238 
12.311 0.089 -0.786 41 125 238 
12.318 0.128 -0.787 41 125 238 
12.318 0.167 -0.787 41 125 238 
12.337 0.186 -0.789 41 125 238 
12.343 0.225 -0.789 41 125 238 
12.37 0.265 -0.791 41 125 238 
12.373 0.304 -0.792 41 125 238 
12.39 0.343 -0.793 41 125 238 
12.389 0.382 -0.793 41 125 238 
12.4 0.421 -0.794 41 125 238 
12.407 0.441 -0.795 41 125 238 
12.417 0.48 -0.796 41 125 238 
12.428 0.52 -0.797 41 125 238 
12.434 0.559 -0.797 41 125 238 
12.442 0.599 -0.798 41 125 238 
12.468 0.639 -0.8 41 125 238 
12.468 0.678 -0.801 41 125 238 
12.485 0.699 -0.802 41 125 238 
12.487 0.738 -0.802 41 125 238 
12.506 0.779 -0.804 41 125 238 
12.519 0.819 -0.805 41 125 238 
12.541 0.86 -0.807 41 125 238 
12.55 0.9 -0.808 41 125 238 
12.561 0.941 -0.809 41 125 238 
12.561 0.961 -0.81 41 125 238 
12.578 1.002 -0.811 41 125 238 
13.013 4.812 -0.912 171 216 61 
12.865 4.803 -0.901 171 216 61 
13.099 4.984 -0.923 171 216 61 
12.815 4.946 -0.901 171 216 61 
12.798 4.985 -0.901 171 216 61 
12.721 5.002 -0.895 171 216 61 
12.729 5.051 -0.898 171 216 61 
12.588 5.087 -0.888 171 216 61 
12.619 5.169 -0.893 171 216 61 
12.675 5.238 -0.899 171 216 61 
12.559 5.283 -0.892 171 216 61 
12.439 5.279 -0.883 171 216 61 
12.191 5.242 -0.863 171 216 61 
12.031 5.264 -0.852 171 216 61 
12.394 5.468 -0.886 171 216 61 
12.158 5.456 -0.868 171 216 61 
12.206 5.523 -0.874 171 216 61 
12.084 5.537 -0.865 171 216 61 
11.871 5.485 -0.848 171 216 61 
11.803 5.499 -0.843 171 216 61 
11.838 5.56 -0.848 171 216 61 
11.844 5.608 -0.85 171 216 61 
12.067 5.83 -0.874 171 216 61 
12.019 5.9 -0.873 171 216 61 
11.931 5.904 -0.867 171 216 61 
8.271 4.134 -0.541 127 49 243 
8.214 4.138 -0.537 240 204 244 
8.199 4.163 -0.536 240 204 244 
11.951 6.173 -0.878 171 216 61 
11.712 6.097 -0.858 171 216 61 
11.656 6.114 -0.855 171 216 61 
11.646 6.155 -0.856 171 216 61 
11.504 6.104 -0.844 194 6 90 
11.528 6.21 -0.849 194 6 90 
11.537 6.261 -0.852 194 6 90 
11.512 6.294 -0.851 194 6 90 
11.506 6.338 -0.853 194 6 90 
11.636 6.457 -0.866 194 6 90 
11.58 6.497 -0.864 194 6 90 
11.228 6.394 -0.835 194 6 90 
11.255 6.503 -0.842 194 6 90 
11.469 6.699 -0.864 194 6 90 
11.193 6.633 -0.843 194 6 90 
11.222 6.697 -0.847 194 6 90 
11.166 6.76 -0.846 194 6 90 
11.179 6.815 -0.849 194 6 90 
11.161 6.852 -0.85 194 6 90 
11.121 6.852 -0.847 194 6 90 
11.083 6.877 -0.845 194 6 90 
11.047 6.903 -0.844 194 6 90 
10.911 6.866 -0.833 194 6 90 
10.93 6.974 -0.839 194 6 90 
10.768 6.919 -0.826 194 6 90 
10.897 7.025 -0.839 194 6 90 
9.331 6.062 -0.691 127 49 243 
9.31 6.09 -0.691 127 49 243 
9.344 6.154 -0.696 127 49 243 
9.307 6.214 -0.697 127 49 243 
9.281 6.238 -0.696 127 49 243 
9.438 6.365 -0.712 127 49 243 
9.265 6.291 -0.697 127 49 243 
10.903 7.498 -0.86 194 6 90 
10.961 7.589 -0.868 194 6 90 
10.915 7.634 -0.867 194 6 90 
10.992 7.739 -0.877 194 6 90 
11.162 7.91 -0.896 194 6 90 
10.763 7.731 -0.862 194 6 90 
10.682 7.724 -0.856 194 6 90 
10.642 7.746 -0.855 194 6 90 
10.651 7.804 -0.858 194 6 90 
10.57 7.77 -0.851 194 6 90 
10.659 7.887 -0.863 194 6 90 
10.896 8.114 -0.889 194 6 90 
10.682 8.06 -0.872 194 6 90 
10.666 8.101 -0.873 194 6 90 
10.66 8.149 -0.875 194 6 90 
10.636 8.157 -0.874 194 6 90 
10.642 8.215 -0.877 194 6 90 
10.631 8.26 -0.879 194 6 90 
10.577 8.272 -0.876 194 6 90 
10.557 8.31 -0.877 194 6 90 
10.536 8.346 -0.877 194 6 90 
10.469 8.347 -0.873 194 6 90 
10.476 8.38 -0.875 194 6 90 
10.552 8.495 -0.886 194 6 90 
10.387 8.471 -0.874 194 6 90 
10.393 8.53 -0.878 194 6 90 
10.403 8.593 -0.881 194 6 90 
7.789 -6.508 -0.613 147 173 117 
7.929 -6.583 -0.626 147 173 117 
7.91 -6.525 -0.621 147 173 117 
8.006 -6.562 -0.629 147 173 117 
8.057 -6.562 -0.632 147 173 117 
8.112 -6.586 -0.637 147 173 117 
8.206 -6.619 -0.645 147 173 117 
8.256 -6.617 -0.648 147 173 117 
8.37 -6.666 -0.657 147 173 117 
8.369 -6.623 -0.655 147 173 117 
8.443 -6.638 -0.66 147 173 117 
8.57 -6.695 -0.671 147 173 117 
8.633 -6.722 -0.677 147 173 117 
8.696 -6.728 -0.681 147 173 117 
8.785 -6.753 -0.688 147 173 117 
8.915 -6.81 -0.699 147 173 117 
8.943 -6.786 -0.699 147 173 117 
9.03 -6.808 -0.706 147 173 117 
9.143 -6.849 -0.715 147 173 117 
9.175 -6.85 -0.717 147 173 117 
9.268 -6.875 -0.725 147 173 117 
9.384 -6.915 -0.734 147 173 117 
10.159 -7.44 -0.809 158 234 187 
10.968 -7.982 -0.887 158 234 187 
10.069 -7.276 -0.795 158 234 187 
10.18 -7.309 -0.804 158 234 187 
10.112 -7.236 -0.796 158 234 187 
10.121 -7.194 -0.795 158 234 187 
10.12 -7.146 -0.793 158 234 187 
10.107 -7.089 -0.789 158 234 187 
10.126 -7.054 -0.789 158 234 187 
10.13 -7.01 -0.787 158 234 187 
10.149 -6.976 -0.787 158 234 187 
10.156 -6.958 -0.786 158 234 187 
10.227 -6.96 -0.791 158 234 187 
10.295 -6.959 -0.796 158 234 187 
10.377 -6.967 -0.802 158 234 187 
5.727 -3.186 -0.324 48 187 29 
5.754 -3.178 -0.326 48 187 29 
5.759 -3.157 -0.326 48 187 29 
15.083 -8.161 -1.175 225 82 220 
15.284 -8.209 -1.191 225 82 220 
15.47 -8.246 -1.205 150 20 100 
15.677 -8.294 -1.222 150 20 100 
15.895 -8.346 -1.239 150 20 100 
16.086 -8.382 -1.254 150 20 100 
16.29 -8.456 -1.271 150 20 100 
16.516 -8.508 -1.289 150 20 100 
16.745 -8.56 -1.308 150 20 100 
16.989 -8.618 -1.327 150 20 100 
17.238 -8.677 -1.347 150 20 100 
17.483 -8.731 -1.367 150 20 100 
17.721 -8.781 -1.386 150 20 100 
17.94 -8.855 -1.404 150 20 100 
18.225 -8.925 -1.427 150 20 100 
18.49 -8.983 -1.448 150 20 100 
18.773 -9.048 -1.471 150 20 100 
19.062 -9.114 -1.494 150 20 100 
19.357 -9.181 -1.518 150 20 100 
19.081 -8.976 -1.491 150 20 100 
19.106 -8.951 -1.492 150 20 100 
18.741 -7.451 -1.417 150 20 100 
18.74 -7.416 -1.416 150 20 100 
18.726 -7.343 -1.413 150 20 100 
18.957 -7.365 -1.431 150 20 100 
18.868 -7.262 -1.421 150 20 100 
18.807 -7.171 -1.414 150 20 100 
18.813 -7.105 -1.412 150 20 100 
18.82 -7.041 -1.411 150 20 100 
18.826 -7.009 -1.411 150 20 100 
18.859 -6.954 -1.412 150 20 100 
18.867 -6.89 -1.41 150 20 100 
18.891 -6.831 -1.411 150 20 100 
18.918 -6.774 -1.411 150 20 100 
18.935 -6.713 -1.411 150 20 100 
18.936 -6.646 -1.409 150 20 100 
18.986 -6.597 -1.412 150 20 100 
18.98 -6.561 -1.41 150 20 100 
19 -6.502 -1.41 150 20 100 
19.062 -6.389 -1.412 150 20 100 
19.237 -6.381 -1.425 150 20 100 
19.175 -6.294 -1.418 150 20 100 
19.064 -6.191 -1.407 150 20 100 
19.07 -6.16 -1.407 150 20 100 
19.089 -6.1 -1.407 150 20 100 
19.543 -6.178 -1.443 150 20 100 
15.867 -1.241 -1.076 41 125 238 
15.491 -1.162 -1.045 41 125 238 
14.858 -1.066 -0.994 41 125 238 
14.661 -1.006 -0.978 41 125 238 
14.406 -0.965 -0.957 41 125 238 
14.174 -0.904 -0.938 41 125 238 
13.926 -0.844 -0.918 41 125 238 
13.714 -0.787 -0.901 41 125 238 
13.519 -0.733 -0.885 41 125 238 
13.304 -0.679 -0.868 41 125 238 
13.123 -0.628 -0.853 41 125 238 
12.965 -0.6 -0.84 41 125 238 
12.817 -0.553 -0.828 41 125 238 
12.686 -0.507 -0.817 41 125 238 
12.578 -0.463 -0.809 41 125 238 
12.485 -0.42 -0.801 41 125 238 
12.415 -0.378 -0.795 41 125 238 
12.378 -0.338 -0.792 41 125 238 
12.353 -0.318 -0.79 41 125 238 
12.22 -0.276 -0.779 41 125 238 
12.219 -0.237 -0.779 41 125 238 
12.22 -0.199 -0.779 41 125 238 
12.35 -0.163 -0.79 41 125 238 
12.328 -0.124 -0.788 41 125 238 
12.283 -0.084 -0.784 41 125 238 
12.295 -0.065 -0.785 41 125 238 
12.287 -0.027 -0.785 41 125 238 
12.32 0.033 -0.858 41 125 238 
12.322 0.071 -0.858 41 125 238 
12.334 0.11 -0.859 41 125 238 
12.333 0.149 -0.859 41 125 238 
12.343 0.188 -0.86 41 125 238 
12.349 0.207 -0.861 41 125 238 
12.356 0.246 -0.861 41 125 238 
12.329 0.284 -0.859 41 125 238 
12.342 0.324 -0.86 41 125 238 
12.365 0.363 -0.862 41 125 238 
12.366 0.402 -0.863 41 125 238 
12.313 0.439 -0.858 41 125 238 
12.354 0.46 -0.862 41 125 238 
12.354 0.499 -0.862 41 125 238 
12.357 0.538 -0.862 41 125 238 
12.367 0.577 -0.863 41 125 238 
12.387 0.617 -0.865 41 125 238 
12.401 0.657 -0.866 41 125 238 
12.414 0.697 -0.868 41 125 238 
12.434 0.737 -0.87 41 125 238 
12.461 0.758 -0.872 41 125 238 
12.468 0.798 -0.873 41 125 238 
12.482 0.838 -0.874 41 125 238 
12.503 0.879 -0.876 41 125 238 
12.526 0.921 -0.879 41 125 238 
12.553 0.962 -0.881 41 125 238 
12.619 1.007 -0.887 41 125 238 
12.816 1.044 -0.904 41 125 238 
8.644 0.723 -0.545 41 125 238 
8.58 0.745 -0.539 122 163 44 
8.5 0.764 -0.533 122 163 44 
8.412 0.783 -0.525 122 163 44 
8.35 0.803 -0.52 122 163 44 
8.286 0.823 -0.515 122 163 44 
7.605 0.996 -0.458 122 163 44 
7.554 1.013 -0.454 122 163 44 
7.511 1.031 -0.451 122 163 44 
6.844 1.202 -0.396 122 163 44 
6.82 1.219 -0.395 122 163 44 
6.818 1.241 -0.395 122 163 44 
6.789 1.247 -0.392 122 163 44 
8.581 1.751 -0.552 122 163 44 
8.598 1.768 -0.553 122 163 44 
8.619 1.801 -0.556 122 163 44 
8.631 1.832 -0.557 122 163 44 
8.619 1.858 -0.557 122 163 44 
8.592 1.88 -0.555 122 163 44 
7.982 1.771 -0.502 122 163 44 
7.951 1.79 -0.5 122 163 44 
7.962 1.806 -0.501 122 163 44 
8.012 2.125 -0.512 122 163 44 
7.998 2.148 -0.511 122 163 44 
8.216 2.221 -0.531 122 163 44 
8.255 2.259 -0.535 122 163 44 
8.198 2.271 -0.53 122 163 44 
8.087 2.268 -0.521 122 163 44 
7.879 2.235 -0.503 122 163 44 
7.898 2.268 -0.505 122 163 44 
7.863 2.298 -0.503 122 163 44 
7.838 2.317 -0.502 122 163 44 
7.059 2.69 -0.448 240 204 244 
7.067 2.707 -0.45 240 204 244 
7.074 2.735 -0.451 240 204 244 
12.055 4.811 -0.915 171 216 61 
12.041 4.894 -0.916 171 216 61 
12.053 4.965 -0.92 171 216 61 
12.074 5.018 -0.923 171 216 61 
11.878 5.024 -0.908 171 216 61 
11.928 5.089 -0.914 171 216 61 
11.853 5.102 -0.908 171 216 61 
11.793 5.12 -0.904 171 216 61 
11.816 5.196 -0.909 171 216 61 
11.749 5.21 -0.904 171 216 61 
11.665 5.261 -0.899 171 216 61 
11.765 5.351 -0.91 171 216 61 
11.739 5.406 -0.91 171 216 61 
11.683 5.47 -0.908 171 216 61 
11.589 5.47 -0.901 171 216 61 
11.586 5.513 -0.902 171 216 61 
11.527 5.529 -0.898 171 216 61 
11.475 5.527 -0.894 171 216 61 
11.478 5.572 -0.896 171 216 61 
11.641 5.742 -0.915 171 216 61 
8.284 4.111 -0.594 240 204 244 
11.409 5.717 -0.896 127 49 243 
8.206 4.136 -0.589 240 204 244 
8.216 4.157 -0.59 240 204 244 
8.158 4.16 -0.586 240 204 244 
11.274 5.85 -0.891 127 49 243 
11.2 5.901 -0.887 127 49 243 
11.148 5.918 -0.884 127 49 243 
11.131 5.932 -0.883 127 49 243 
11.194 6.056 -0.893 194 6 90 
11.117 6.06 -0.887 127 49 243 
11.106 6.099 -0.888 127 49 243 
11.077 6.129 -0.887 127 49 243 
11.153 6.217 -0.897 194 6 90 
11.077 6.243 -0.892 194 6 90 
11.019 6.256 -0.888 194 6 90 
10.991 6.285 -0.887 194 6 90 
10.972 6.366 -0.889 194 6 90 
10.964 6.408 -0.891 194 6 90 
10.937 6.438 -0.89 194 6 90 
10.86 6.462 -0.885 194 6 90 
10.833 6.492 -0.885 194 6 90 
10.862 6.556 -0.89 194 6 90 
10.819 6.577 -0.887 194 6 90 
10.956 6.708 -0.903 194 6 90 
10.776 6.643 -0.887 194 6 90 
10.724 6.682 -0.885 194 6 90 
10.673 6.696 -0.882 194 6 90 
10.668 6.74 -0.884 194 6 90 
10.646 6.82 -0.886 194 6 90 
10.635 6.837 -0.886 194 6 90 
10.619 6.873 -0.886 194 6 90 
10.554 6.878 -0.882 194 6 90 
9.242 6.103 -0.751 127 49 243 
9.296 6.223 -0.761 127 49 243 
9.316 6.3 -0.766 127 49 243 
9.253 6.3 -0.761 194 6 90 
10.423 7.149 -0.885 194 6 90 
10.471 7.23 -0.893 194 6 90 
10.398 7.228 -0.888 194 6 90 
10.417 7.339 -0.894 194 6 90 
10.378 7.336 -0.891 194 6 90 
10.395 7.397 -0.896 194 6 90 
10.3 7.427 -0.891 194 6 90 
10.235 7.429 -0.886 194 6 90 
10.281 7.512 -0.894 194 6 90 
10.191 7.496 -0.887 194 6 90 
10.236 7.603 -0.895 194 6 90 
10.142 7.583 -0.888 194 6 90 
10.289 7.795 -0.909 194 6 90 
10.272 7.833 -0.909 194 6 90 
10.333 7.931 -0.919 194 6 90 
10.246 7.89 -0.911 194 6 90 
10.107 7.884 -0.901 194 6 90 
10.073 7.908 -0.9 194 6 90 
10.008 7.908 -0.895 194 6 90 
10.057 7.999 -0.904 194 6 90 
9.908 7.956 -0.891 194 6 90 
9.923 8.02 -0.896 194 6 90 
9.96 8.101 -0.903 194 6 90 
9.917 8.119 -0.901 194 6 90 
10.037 8.271 -0.917 194 6 90 
7.819 -6.522 -0.674 147 173 117 
7.87 -6.523 -0.678 147 173 117 
7.948 -6.545 -0.684 147 173 117 
7.996 -6.543 -0.687 147 173 117 
8.266 -6.719 -0.715 147 173 117 
8.138 -6.595 -0.699 147 173 117 
8.271 -6.659 -0.712 147 173 117 
8.294 -6.634 -0.712 147 173 117 
8.364 -6.648 -0.717 147 173 117 
8.406 -6.638 -0.72 147 173 117 
8.519 -6.683 -0.73 147 173 117 
8.72 -6.796 -0.749 147 173 117 
9.049 -7.028 -0.784 147 173 117 
9.105 -7.027 -0.788 147 173 117 
9.223 -7.071 -0.798 147 173 117 
9.245 -7.042 -0.798 147 173 117 
9.244 -6.996 -0.796 147 173 117 
9.238 -6.945 -0.792 147 173 117 
9.245 -6.905 -0.791 147 173 117 
9.233 -6.874 -0.789 147 173 117 
9.241 -6.835 -0.787 147 173 117 
9.244 -6.793 -0.785 147 173 117 
9.24 -6.745 -0.782 147 173 117 
9.255 -6.711 -0.782 147 173 117 
9.321 -6.714 -0.786 147 173 117 
9.413 -6.736 -0.794 147 173 117 
9.495 -6.772 -0.802 147 173 117 
9.53 -6.751 -0.803 147 173 117 
9.662 -6.799 -0.815 147 173 117 
9.749 -6.814 -0.821 147 173 117 
5.203 -3.627 -0.344 48 187 29 
5.206 -3.605 -0.343 48 187 29 
5.198 -3.575 -0.341 48 187 29 
5.213 -3.574 -0.342 48 187 29 
5.214 -3.551 -0.341 48 187 29 
5.207 -3.522 -0.339 48 187 29 
5.21 -3.5 -0.338 48 187 29 
5.223 -3.485 -0.339 48 187 29 
5.232 -3.468 -0.338 48 187 29 
5.221 -3.437 -0.336 48 187 29 
5.235 -3.434 -0.337 48 187 29 
5.221 -3.401 -0.335 48 187 29 
5.229 -3.384 -0.334 48 187 29 
5.267 -3.385 -0.337 48 187 29 
5.264 -3.36 -0.336 48 187 29 
5.273 -3.342 -0.336 48 187 29 
5.28 -3.323 -0.335 48 187 29 
5.285 -3.315 -0.335 48 187 29 
5.299 -3.3 -0.336 48 187 29 
5.313 -3.286 -0.336 48 187 29 
5.292 -3.251 -0.333 48 187 29 
5.33 -3.25 -0.336 48 187 29 
5.34 -3.234 -0.336 48 187 29 
5.361 -3.223 -0.337 48 187 29 
5.359 -3.21 -0.336 48 187 29 
5.367 -3.193 -0.336 48 187 29 
5.386 -3.181 -0.337 48 187 29 
5.401 -3.167 -0.337 48 187 29 
5.411 -3.15 -0.337 48 187 29 
5.421 -3.133 -0.337 48 187 29 
5.434 -3.118 -0.337 48 187 29 
5.418 -3.097 -0.335 48 187 29 
5.419 -3.075 -0.335 48 187 29 
5.458 -3.075 -0.337 48 187 29 
5.482 -3.066 -0.339 48 187 29 
5.491 -3.048 -0.339 48 187 29 
5.517 -3.04 -0.34 48 187 29 
5.54 -3.03 -0.342 48 187 29 
5.527 -3.012 -0.34 48 187 29 
5.574 -3.014 -0.344 48 187 29 
5.573 -2.991 -0.343 48 187 29 
5.6 -2.983 -0.344 48 187 29 
5.625 -2.973 -0.346 48 187 29 
5.634 -2.956 -0.346 48 187 29 
5.666 -2.95 -0.348 48 187 29 
5.685 -2.948 -0.349 48 187 29 
5.693 -2.929 -0.349 48 187 29 
5.723 -2.922 -0.351 48 187 29 
5.738 -2.907 -0.352 48 187 29 
5.802 -2.917 -0.357 48 187 29 
5.836 -2.911 -0.36 48 187 29 
5.876 -2.907 -0.362 48 187 29 
5.893 -2.904 -0.364 48 187 29 
15.472 -1.17 -1.133 41 125 238 
14.841 -1.029 -1.078 41 125 238 
14.58 -0.966 -1.055 41 125 238 
14.315 -0.926 -1.032 41 125 238 
14.077 -0.867 -1.011 41 125 238 
13.718 -0.802 -0.98 41 125 238 
13.559 -0.75 -0.966 41 125 238 
13.35 -0.697 -0.948 41 125 238 
13.12 -0.644 -0.928 41 125 238 
12.954 -0.596 -0.914 41 125 238 
12.802 -0.569 -0.901 41 125 238 
12.678 -0.524 -0.89 41 125 238 
12.578 -0.48 -0.881 41 125 238 
12.496 -0.438 -0.874 41 125 238 
12.42 -0.396 -0.867 41 125 238 
12.381 -0.356 -0.864 41 125 238 
12.344 -0.316 -0.86 41 125 238 
12.327 -0.297 -0.859 41 125 238 
12.308 -0.258 -0.857 41 125 238 
12.31 -0.219 -0.857 41 125 238 
12.297 -0.18 -0.856 41 125 238 
