-0.534022 -1.35075 2.39984 -0.744544 2.77208 -0.979471 
-0.539048 -1.33278 2.45453 -1.59423 5.94513 -0.758047 
-0.538267 -1.33558 2.48734 -1.23369 4.60147 3.18175 
-0.533179 -1.35378 2.49828 -0.072588 0.263231 5.68744 
-0.525283 -1.38202 2.48734 0.856533 -3.19502 5.10284 
-0.516075 -1.41495 2.45452 1.24735 -4.64921 3.82246 
-0.507055 -1.4472 2.39983 1.41661 -5.27947 2.94083 
-0.909889 -1.40046 2.39984 -1.9e-05 2.87243 -0.978504 
-0.909911 -1.38184 2.45453 -1.5e-05 6.15558 -0.756815 
-0.909908 -1.38473 2.48734 3.9e-05 4.76633 3.17745 
-0.909885 -1.40359 2.49827 3.9e-05 0.276792 5.6855 
-0.90985 -1.43288 2.48733 7e-06 -3.31024 5.10213 
-0.909809 -1.46702 2.45452 7e-06 -4.81698 3.82052 
-0.909769 -1.50046 2.39982 -8e-06 -5.46898 2.93838 
-1.28587 -1.35165 2.39984 0.744574 2.77208 -0.979466 
-1.28089 -1.33367 2.45453 1.59425 5.94512 -0.758053 
-1.28166 -1.33647 2.48734 1.23362 4.60149 3.18175 
-1.28671 -1.35468 2.49828 0.072521 0.263247 5.68744 
-1.29454 -1.38294 2.48734 -0.856554 -3.19502 5.10283 
-1.30367 -1.41589 2.45452 -1.24737 -4.6492 3.82246 
-1.31261 -1.44816 2.39983 -1.41658 -5.27947 2.94084 
-1.62152 -1.21257 2.39986 1.43859 2.48431 -0.981343 
-1.61207 -1.19645 2.45455 3.08275 5.32706 -0.759162 
-1.61354 -1.19895 2.48736 2.38501 4.12161 3.18174 
-1.62311 -1.21529 2.4983 0.13913 0.23783 5.689 
-1.63796 -1.24064 2.48735 -1.65454 -2.85934 5.10695 
-1.65527 -1.2702 2.45454 -2.40996 -4.16355 3.82781 
-1.67223 -1.29915 2.39985 -2.73763 -4.72946 2.94571 
-1.90437 -0.995653 2.39988 2.03023 2.03023 -0.982261 
-1.89116 -0.982413 2.45457 4.35191 4.35191 -0.75945 
-1.89321 -0.984474 2.48738 3.36626 3.36628 3.18182 
-1.90659 -0.997886 2.49832 0.195364 0.195379 5.68968 
-1.92736 -1.0187 2.48738 -2.33495 -2.33493 5.10863 
-1.95157 -1.04297 2.45457 -3.40106 -3.40106 3.83006 
-1.97529 -1.06674 2.39987 -3.86377 -3.8638 2.94781 
-2.12197 -0.71332 2.39992 2.48431 1.4386 -0.981338 
-2.10586 -0.703838 2.45461 5.32705 3.08275 -0.759166 
-2.10836 -0.705316 2.48742 4.12164 2.38498 3.18174 
-2.12467 -0.714923 2.49836 0.237845 0.139093 5.68901 
-2.14999 -0.729832 2.48741 -2.85933 -1.65456 5.10695 
-2.17951 -0.747213 2.4546 -4.16354 -2.40997 3.82782 
-2.20843 -0.764238 2.39991 -4.72948 -2.7376 2.9457 
-2.26185 -0.378006 2.39996 2.77208 0.744544 -0.979471 
-2.24388 -0.372987 2.45465 5.94513 1.59423 -0.758047 
-2.24667 -0.373771 2.48746 4.60147 1.23369 3.18175 
-2.26487 -0.37886 2.4984 0.263231 0.072588 5.68744 
-2.29311 -0.386756 2.48746 -3.19502 -0.856533 5.10284 
-2.32604 -0.395959 2.45464 -4.64921 -1.24735 3.82246 
-2.3583 -0.404974 2.39995 -5.27947 -1.41661 2.94083 
-2.31156 -0.00213937 2.4 2.87243 1.9e-05 -0.978504 
-2.29293 -0.00212351 2.45469 6.15558 1.5e-05 -0.756815 
-2.29582 -0.00213084 2.4875 4.76633 -3.9e-05 3.17745 
-2.31468 -0.00215471 2.49844 0.276792 -3.9e-05 5.6855 
-2.34397 -0.00218849 2.4875 -3.31024 -7e-06 5.10213 
-2.37811 -0.00222549 2.45469 -4.81698 -7e-06 3.82052 
-2.41156 -0.0022591 2.4 -5.46898 8e-06 2.93838 
-2.26275 0.373845 2.40004 2.77208 -0.744574 -0.979466 
-2.24477 0.368856 2.45473 5.94512 -1.59425 -0.758053 
-2.24756 0.369626 2.48754 4.60149 -1.23362 3.18175 
-2.26578 0.374669 2.49848 0.263247 -0.072521 5.68744 
-2.29403 0.3825 2.48755 -3.19502 0.856554 5.10283 
-2.32699 0.391632 2.45474 -4.6492 1.24737 3.82246 
-2.35927 0.400582 2.40005 -5.27947 1.41658 2.94084 
-2.12368 0.709493 2.40008 2.48431 -1.43859 -0.981343 
-2.10754 0.700037 2.45477 5.32706 -3.08275 -0.759162 
-2.11005 0.701501 2.48758 4.12161 -2.38501 3.18174 
-2.12638 0.711066 2.49852 0.23783 -0.13913 5.689 
-2.15174 0.725917 2.48759 -2.85934 1.65454 5.10695 
-2.1813 0.743236 2.45478 -4.16355 2.40996 3.82781 
-2.21026 0.760204 2.40009 -4.72946 2.73763 2.94571 
-1.90675 0.992346 2.40012 2.03023 -2.03023 -0.982261 
-1.89351 0.979125 2.45481 4.35191 -4.35191 -0.75945 
-1.89556 0.981173 2.48762 3.36628 -3.36626 3.18182 
-1.90898 0.994551 2.49856 0.195379 -0.195364 5.68968 
-1.92979 1.01532 2.48762 -2.33493 2.33495 5.10863 
-1.95406 1.03953 2.45481 -3.40106 3.40106 3.83006 
-1.97784 1.06326 2.40013 -3.8638 3.86377 2.94781 
-1.62442 1.20994 2.40014 1.4386 -2.48431 -0.981338 
-1.61493 1.19383 2.45483 3.08275 -5.32705 -0.759166 
-1.61641 1.19632 2.48764 2.38498 -4.12164 3.18174 
-1.62601 1.21263 2.49858 0.139093 -0.237845 5.68901 
-1.64092 1.23795 2.48765 -1.65456 2.85933 5.10695 
-1.65831 1.26748 2.45484 -2.40997 4.16354 3.82782 
-1.67534 1.2964 2.40015 -2.7376 4.72948 2.9457 
-1.28911 1.34983 2.40016 0.744544 -2.77208 -0.979471 
-1.28408 1.33185 2.45485 1.59423 -5.94513 -0.758047 
-1.28486 1.33463 2.48766 1.23369 -4.60147 3.18175 
-1.28995 1.35283 2.4986 0.072588 -0.263231 5.68744 
-1.29785 1.38107 2.48766 -0.856533 3.19502 5.10284 
-1.30705 1.41401 2.45486 -1.24735 4.64921 3.82246 
-1.31608 1.44627 2.40017 -1.41661 5.27947 2.94083 
-0.913241 1.39954 2.40017 1.9e-05 -2.87243 -0.978504 
-0.913219 1.3809 2.45485 1.5e-05 -6.15558 -0.756815 
-0.913222 1.38379 2.48766 -3.9e-05 -4.76633 3.17745 
-0.913245 1.40264 2.49861 -3.9e-05 -0.276792 5.6855 
-0.91328 1.43194 2.48767 -7e-06 3.31024 5.10213 
-0.913321 1.46608 2.45486 -7e-06 4.81698 3.82052 
-0.913361 1.49954 2.40018 8e-06 5.46898 2.93838 
-0.537256 1.35073 2.40016 -0.744574 -2.77208 -0.979466 
-0.542239 1.33273 2.45485 -1.59425 -5.94512 -0.758053 
-0.541465 1.33552 2.48766 -1.23362 -4.60149 3.18175 
-0.536421 1.35374 2.4986 -0.072521 -0.263247 5.68744 
-0.528592 1.382 2.48766 0.856554 3.19502 5.10283 
-0.519463 1.41495 2.45486 1.24737 4.6492 3.82246 
-0.51052 1.44724 2.40017 1.41658 5.27947 2.94084 
-0.201609 1.21165 2.40014 -1.43859 -2.48431 -0.981343 
-0.211058 1.19551 2.45483 -3.08275 -5.32706 -0.759162 
-0.20959 1.19801 2.48764 -2.38501 -4.12161 3.18174 
-0.200024 1.21434 2.49858 -0.13913 -0.23783 5.689 
-0.185174 1.2397 2.48765 1.65454 2.85934 5.10695 
-0.16786 1.26926 2.45484 2.40996 4.16355 3.82781 
-0.150897 1.29823 2.40015 2.73763 4.72946 2.94571 
0.0812443 0.994726 2.40012 -2.03023 -2.03023 -0.982261 
0.0680301 0.981474 2.45481 -4.35191 -4.35191 -0.75945 
0.0700817 0.983526 2.48762 -3.36626 -3.36628 3.18182 
0.0834606 0.996936 2.49856 -0.195364 -0.195379 5.68968 
0.104227 1.01775 2.48762 2.33495 2.33493 5.10863 
0.128438 1.04203 2.45481 3.40106 3.40106 3.83006 
0.152159 1.06581 2.40013 3.86377 3.8638 2.94781 
0.298842 0.712393 2.40008 -2.48431 -1.4386 -0.981338 
0.282734 0.702899 2.45477 -5.32705 -3.08275 -0.759166 
0.285232 0.704369 2.48758 -4.12164 -2.38498 3.18174 
0.301541 0.713973 2.49852 -0.237845 -0.139093 5.68901 
0.326863 0.728885 2.48759 2.85933 1.65456 5.10695 
0.356382 0.746274 2.45478 4.16354 2.40997 3.82782 
0.385302 0.763312 2.40009 4.72948 2.7376 2.9457 
0.438724 0.37708 2.40004 -2.77208 -0.744544 -0.979471 
0.42075 0.372048 2.45473 -5.94513 -1.59423 -0.758047 
0.423539 0.372824 2.48754 -4.60147 -1.23369 3.18175 
0.441743 0.377911 2.49848 -0.263231 -0.072588 5.68744 
0.469984 0.385809 2.48755 3.19502 0.856533 5.10284 
0.502913 0.39502 2.45474 4.64921 1.24735 3.82246 
0.535172 0.404047 2.40005 5.27947 1.41661 2.94083 
0.712274 0.00151176 2.13785 5.66286 2e-06 2.60775 
0.655666 -0.434588 2.1378 5.46705 -1.46686 2.61035 
0.829174 0.00168236 1.87778 5.7311 3e-06 2.43601 
0.768483 -0.465812 1.87772 5.53304 -1.48463 2.43848 
0.932183 0.00183585 1.62187 5.8415 2.5e-05 2.12854 
0.867906 -0.493322 1.62182 5.63976 -1.51332 2.13068 
1.01436 0.00196365 1.37222 5.97989 -8e-06 1.64719 
0.947213 -0.515264 1.37216 5.7736 -1.54939 1.64892 
1.06875 0.00205721 1.1309 6.1104 -1.1e-05 0.939125 
0.99972 -0.52978 1.13084 5.89964 -1.58334 0.940158 
1.08843 0.00210798 0.9 6.10422 2e-06 -0.279133 
1.01871 -0.535013 0.899937 5.89331 -1.58198 -0.279391 
0.494342 -0.823903 2.13775 4.89797 -2.83512 2.61482 
0.595553 -0.883152 1.87768 4.9573 -2.86944 2.44288 
0.684745 -0.935359 1.62177 5.0533 -2.92516 2.13458 
0.755885 -0.977003 1.3721 5.17374 -2.99495 1.6522 
0.802988 -1.00456 1.13078 5.28723 -3.06076 0.942092 
0.82002 -1.01451 0.89988 5.28178 -3.05788 -0.279976 
0.242744 -1.15198 2.13771 4.00155 -4.00152 2.61669 
0.325844 -1.23485 1.87763 4.05012 -4.05017 2.44448 
0.399061 -1.30786 1.62172 4.12878 -4.12878 2.13624 
0.457481 -1.36611 1.37206 4.22734 -4.22733 1.65355 
0.496147 -1.40466 1.13073 4.32035 -4.32037 0.942851 
0.510134 -1.41859 0.899833 4.31611 -4.31612 -0.280292 
-0.0847306 -1.40436 2.13768 2.83509 -4.89797 2.61484 
-0.0252086 -1.5054 1.8776 2.8695 -4.95728 2.44284 
0.027242 -1.59444 1.62169 2.92513 -5.0533 2.13463 
0.069085 -1.66545 1.37202 2.99494 -5.17376 1.65217 
0.0967852 -1.71246 1.1307 3.06077 -5.28722 0.942112 
0.106806 -1.72944 0.899796 3.05789 -5.28177 -0.279994 
-0.473658 -1.56662 2.13767 1.46686 -5.46705 2.61035 
-0.442134 -1.67933 1.87758 1.48461 -5.53305 2.43847 
-0.414355 -1.77866 1.62166 1.51332 -5.63979 2.13064 
-0.392194 -1.85788 1.372 1.5494 -5.77357 1.649 
-0.377524 -1.91033 1.13067 1.58335 -5.89965 0.940123 
-0.372219 -1.92927 0.899773 1.58198 -5.89331 -0.279371 
-0.909621 -1.62427 2.13766 2e-06 -5.66286 2.60775 
-0.909481 -1.74114 1.87758 3e-06 -5.7311 2.43601 
-0.909358 -1.84412 1.62165 2.4e-05 -5.8415 2.12854 
-0.909259 -1.92627 1.37199 -8e-06 -5.97989 1.64719 
-0.909194 -1.98063 1.13067 -1.1e-05 -6.1104 0.939125 
-0.909171 -2.00029 0.899764 2e-06 -6.10422 -0.279133 
-1.34572 -1.56766 2.13767 -1.46686 -5.46705 2.61035 
-1.37698 -1.68045 1.87758 -1.48463 -5.53304 2.43848 
-1.40452 -1.77984 1.62167 -1.51332 -5.63976 2.13068 
-1.42649 -1.85912 1.372 -1.54939 -5.7736 1.64892 
-1.44103 -1.9116 1.13068 -1.58334 -5.89964 0.940158 
-1.44629 -1.93056 0.899773 -1.58198 -5.89331 -0.279391 
-1.73504 -1.40634 2.13768 -2.83512 -4.89797 2.61482 
-1.79432 -1.50752 1.8776 -2.86944 -4.9573 2.44288 
-1.84655 -1.59668 1.62169 -2.92516 -5.0533 2.13458 
-1.88823 -1.66779 1.37202 -2.99495 -5.17374 1.6522 
-1.91581 -1.71487 1.1307 -3.06076 -5.28723 0.942092 
-1.92579 -1.73187 0.899796 -3.05788 -5.28178 -0.279976 
-2.06311 -1.15474 2.13771 -4.00152 -4.00155 2.61669 
-2.14601 -1.23781 1.87763 -4.05017 -4.05012 2.44448 
-2.21906 -1.311 1.62172 -4.12878 -4.12878 2.13624 
-2.27734 -1.36939 1.37206 -4.22733 -4.22734 1.65355 
-2.31591 -1.40803 1.13073 -4.32037 -4.32035 0.942851 
-2.32986 -1.42199 0.899833 -4.31612 -4.31611 -0.280292 
-2.3155 -0.827267 2.13775 -4.89797 -2.83509 2.61484 
-2.41657 -0.886758 1.87768 -4.95728 -2.8695 2.44284 
-2.50563 -0.939179 1.62177 -5.0533 -2.92513 2.13463 
-2.57667 -0.980992 1.37211 -5.17376 -2.99494 1.65217 
-2.62371 -1.00866 1.13078 -5.28722 -3.06077 0.942112 
-2.64072 -1.01866 0.899881 -5.28177 -3.05789 -0.279994 
-2.47775 -0.43834 2.1378 -5.46705 -1.46686 2.61035 
-2.59049 -0.469833 1.87773 -5.53305 -1.48461 2.43847 
-2.68985 -0.497582 1.62181 -5.63979 -1.51332 2.13064 
-2.7691 -0.519713 1.37216 -5.77357 -1.5494 1.649 
-2.82158 -0.534355 1.13084 -5.89965 -1.58335 0.940123 
-2.84055 -0.539633 0.899937 -5.89331 -1.58198 -0.279371 
-2.5354 -0.00237647 2.13785 -5.66286 -2e-06 2.60775 
-2.6523 -0.00248578 1.87778 -5.7311 -3e-06 2.43601 
-2.75531 -0.00257895 1.62187 -5.8415 -2.4e-05 2.12854 
-2.83749 -0.00264792 1.37222 -5.97989 8e-06 1.64719 
-2.89188 -0.0026846 1.1309 -6.1104 1.1e-05 0.939125 
-2.91156 -0.00268096 0.9 -4.42427 -0.005775 2.66565 
-2.4788 0.433724 2.1379 -5.46705 1.46686 2.61035 
-2.59161 0.465008 1.87784 -5.53304 1.48463 2.43848 
-2.69104 0.492579 1.62194 -5.63976 1.51332 2.13068 
-2.77034 0.51458 1.37228 -5.7736 1.54939 1.64892 
-2.82285 0.529152 1.13096 -5.89964 1.58334 0.940158 
-2.84184 0.53444 0.900064 -5.89331 1.58198 -0.279391 
-2.31747 0.823038 2.13795 -4.89797 2.83512 2.61482 
-2.41868 0.882349 1.87788 -4.9573 2.86944 2.44288 
-2.50788 0.934616 1.62199 -5.0533 2.92516 2.13458 
-2.57902 0.976318 1.37234 -5.17374 2.99495 1.6522 
-2.62612 1.00393 1.13102 -5.28723 3.06076 0.942092 
-2.64315 1.01394 0.90012 -5.28178 3.05788 -0.279976 
-2.06587 1.15112 2.13799 -4.00155 4.00152 2.61669 
-2.14897 1.23405 1.87793 -4.05012 4.05017 2.44448 
-2.22219 1.30712 1.62202 -4.12878 4.12878 2.13624 
-2.28061 1.36543 1.37238 -4.22734 4.22733 1.65355 
-2.31928 1.40403 1.13107 -4.32035 4.32037 0.942851 
-2.33326 1.41801 0.900168 -4.31611 4.31612 -0.280292 
-1.7384 1.4035 2.13802 -2.83509 4.89797 2.61484 
-1.79792 1.5046 1.87796 -2.8695 4.95728 2.44284 
-1.85037 1.5937 1.62207 -2.92513 5.0533 2.13463 
-1.89222 1.66476 1.37242 -2.99494 5.17376 1.65217 
-1.91992 1.71183 1.1311 -3.06077 5.28722 0.942112 
-1.92994 1.72887 0.900204 -3.05789 5.28177 -0.279994 
-1.34947 1.56575 2.13803 -1.46686 5.46705 2.61035 
-1.381 1.67853 1.87798 -1.48461 5.53305 2.43847 
-1.40878 1.77791 1.62208 -1.51332 5.63979 2.13064 
-1.43094 1.8572 1.37244 -1.5494 5.77357 1.649 
-1.44561 1.9097 1.13113 -1.58335 5.89965 0.940123 
-1.45091 1.9287 0.900228 -1.58198 5.89331 -0.279371 
-0.913509 1.62341 2.13804 -2e-06 5.66286 2.60775 
-0.913649 1.74034 1.87799 -3e-06 5.7311 2.43601 
-0.913773 1.84338 1.62209 -2.4e-05 5.8415 2.12854 
-0.913871 1.92559 1.37245 8e-06 5.97989 1.64719 
-0.913936 1.98 1.13113 1.1e-05 6.1104 0.939125 
-0.91396 1.99971 0.900236 -2e-06 6.10422 -0.279133 
-0.477409 1.5668 2.13803 1.46686 5.46705 2.61035 
-0.446155 1.67965 1.87798 1.48463 5.53304 2.43848 
-0.418614 1.7791 1.62209 1.51332 5.63976 2.13068 
-0.396643 1.85844 1.37244 1.54939 5.7736 1.64892 
-0.382099 1.91097 1.13113 1.58334 5.89964 0.940158 
-0.376839 1.92999 0.900227 1.58198 5.89331 -0.279391 
-0.0880947 1.40547 2.13802 2.83512 4.89797 2.61482 
-0.0288149 1.50672 1.87796 2.86944 4.9573 2.44288 
0.0234223 1.59594 1.62207 2.92516 5.0533 2.13458 
0.0650951 1.66711 1.37242 2.99495 5.17374 1.6522 
0.0926827 1.71424 1.1311 3.06076 5.28723 0.942092 
0.102662 1.7313 0.900204 3.05788 5.28178 -0.279976 
0.239984 1.15388 2.13799 4.00152 4.00155 2.61669 
0.322884 1.23701 1.87793 4.05017 4.05012 2.44448 
0.395927 1.31025 1.62202 4.12878 4.12878 2.13624 
0.454207 1.3687 1.37238 4.22733 4.22734 1.65355 
0.49278 1.4074 1.13107 4.32037 4.32035 0.942851 
0.506734 1.42141 0.900167 4.31612 4.31611 -0.280292 
0.492366 0.826402 2.13795 4.89797 2.83509 2.61484 
0.593435 0.885955 1.87788 4.95728 2.8695 2.44284 
0.682502 0.938436 1.62199 5.0533 2.92513 2.13463 
0.753542 0.980308 1.37234 5.17376 2.99494 1.65217 
0.800579 1.00804 1.13102 5.28722 3.06077 0.942112 
0.817587 1.01808 0.90012 5.28177 3.05789 -0.279994 
0.654622 0.437475 2.1379 5.46705 1.46686 2.61035 
0.767364 0.46903 1.87784 5.53305 1.48461 2.43847 
0.866721 0.496839 1.62193 5.63979 1.51332 2.13064 
0.945974 0.519029 1.37228 5.77357 1.5494 1.649 
0.998447 0.533727 1.13096 5.89965 1.58335 0.940123 
1.01742 0.53906 0.900063 5.89331 1.58198 -0.279371 
1.05139 0.00208798 0.693403 5.74868 -1e-06 -1.98422 
0.982964 -0.525086 0.693341 5.54932 -1.48954 -1.98556 
0.958803 0.0019973 0.522222 5.07986 1e-05 -3.48763 
0.893595 -0.50031 0.522163 4.90318 -1.3156 -3.48986 
0.838433 0.00186943 0.384375 4.42951 -3e-06 -4.36616 
0.777426 -0.468111 0.38432 4.27482 -1.14671 -4.36847 
0.718063 0.00173788 0.277778 4.08434 7e-06 -4.73726 
0.661247 -0.435916 0.277726 3.94131 -1.0572 -4.73971 
0.625473 0.00163615 0.200347 4.52903 3e-06 -4.31469 
0.571887 -0.411151 0.200298 4.37097 -1.1725 -4.31822 
0.588433 0.00159774 0.15 5.52692 1e-06 -2.88635 
0.536136 -0.401243 0.149953 5.3363 -1.43126 -2.88974 
0.787958 -0.995704 0.693285 4.97253 -2.87877 -1.98934 
0.707791 -0.948729 0.52211 4.39156 -2.54206 -3.49508 
0.603568 -0.887671 0.38427 3.82735 -2.21526 -4.37339 
0.499355 -0.826618 0.27768 3.52817 -2.04198 -4.74395 
0.419189 -0.779654 0.200255 3.91372 -2.26516 -4.32203 
0.387126 -0.760866 0.14991 4.78001 -2.76639 -2.89396 
0.483802 -1.39229 0.693239 4.06308 -4.0631 -1.99104 
0.417983 -1.32661 0.522066 3.5876 -3.58757 -3.49722 
0.332421 -1.24124 0.384229 3.12611 -3.12607 -4.3753 
0.246859 -1.15587 0.277642 2.88143 -2.88142 -4.74566 
0.18104 -1.0902 0.200218 3.19642 -3.19645 -4.32374 
0.154709 -1.06392 0.149875 3.90461 -3.90464 -2.8955 
0.0879431 -1.6974 0.693203 2.87879 -4.97253 -1.98932 
0.0407962 -1.61732 0.522031 2.54203 -4.39157 -3.49509 
-0.0204945 -1.51323 0.384197 2.21523 -3.82739 -4.37338 
-0.0817851 -1.40915 0.277612 2.04197 -3.52816 -4.74396 
-0.128931 -1.32909 0.20019 2.26519 -3.91371 -4.32203 
-0.14779 -1.29706 0.149847 2.7664 -4.78 -2.89398 
-0.382206 -1.89353 0.69318 1.48954 -5.54932 -1.98557 
-0.407176 -1.8042 0.522009 1.3156 -4.90317 -3.48986 
-0.439637 -1.68809 0.384176 1.14673 -4.27482 -4.36846 
-0.472097 -1.57198 0.277593 1.05719 -3.9413 -4.73971 
-0.497067 -1.48267 0.200172 1.17248 -4.37098 -4.31821 
-0.507055 -1.44693 0.14983 1.43126 -5.33628 -2.88976 
-0.909215 -1.96322 0.693172 -1e-06 -5.74867 -1.98422 
-0.909326 -1.87061 0.522002 1e-05 -5.07986 -3.48763 
-0.90947 -1.75022 0.384169 -3e-06 -4.42951 -4.36616 
-0.909614 -1.62984 0.277586 7e-06 -4.08434 -4.73726 
-0.909725 -1.53724 0.200166 3e-06 -4.52903 -4.31469 
-0.90977 -1.5002 0.149823 1e-06 -5.52692 -2.88635 
-1.43639 -1.89479 0.69318 -1.48954 -5.54932 -1.98556 
-1.41163 -1.8054 0.52201 -1.3156 -4.90318 -3.48986 
-1.37945 -1.68922 0.384176 -1.14671 -4.27482 -4.36847 
-1.34727 -1.57303 0.277593 -1.0572 -3.94131 -4.73971 
-1.32251 -1.48366 0.200172 -1.1725 -4.37097 -4.31822 
-1.31261 -1.4479 0.14983 -1.43126 -5.3363 -2.88974 
-1.90701 -1.69979 0.693203 -2.87877 -4.97253 -1.98934 
-1.86005 -1.6196 0.522032 -2.54206 -4.39156 -3.49508 
-1.79901 -1.51536 0.384197 -2.21526 -3.82735 -4.37339 
-1.73797 -1.41113 0.277612 -2.04198 -3.52817 -4.74395 
-1.69102 -1.33096 0.200191 -2.26516 -3.91372 -4.32203 
-1.67223 -1.29889 0.149847 -2.76639 -4.78001 -2.89396 
-2.3036 -1.39563 0.693239 -4.0631 -4.06308 -1.99104 
-2.23793 -1.32979 0.522066 -3.58757 -3.5876 -3.49722 
-2.15258 -1.24421 0.384229 -3.12607 -3.12611 -4.3753 
-2.06722 -1.15864 0.277642 -2.88142 -2.88143 -4.74566 
-2.00156 -1.09281 0.200219 -3.19645 -3.19642 -4.32374 
-1.97529 -1.06647 0.149875 -3.90464 -3.90461 -2.8955 
-2.6087 -0.999771 0.693286 -4.97253 -2.87879 -1.98932 
-2.52865 -0.952604 0.52211 -4.39157 -2.54203 -3.49509 
-2.42457 -0.891297 0.384271 -3.82739 -2.21523 -4.37338 
-2.3205 -0.829994 0.277681 -3.52816 -2.04197 -4.74396 
-2.24045 -0.782839 0.200255 -3.91371 -2.26519 -4.32203 
-2.20843 -0.763973 0.149911 -4.78 -2.7664 -2.89398 
-2.80483 -0.529621 0.693341 -5.54932 -1.48954 -1.98557 
-2.71552 -0.504631 0.522163 -4.90317 -1.3156 -3.48986 
-2.59943 -0.472154 0.38432 -4.27482 -1.14673 -4.36846 
-2.48333 -0.439681 0.277727 -3.9413 -1.05719 -4.73971 
-2.39403 -0.414702 0.200299 -4.37098 -1.17248 -4.31821 
-2.3583 -0.404708 0.149953 -5.33628 -1.43126 -2.88976 
-2.87452 -0.00261227 0.693403 -5.74867 1e-06 -1.98422 
-2.78193 -0.00248124 0.522222 -5.07986 -1e-05 -3.48763 
-2.66156 -0.00232089 0.384375 -4.42951 3e-06 -4.36616 
-2.54119 -0.00216421 0.277778 -4.08434 -7e-06 -4.73726 
-2.4486 -0.00204424 0.200347 -4.52903 -3e-06 -4.31469 
-2.41156 -0.00199396 0.15 -5.52692 -1e-06 -2.88635 
-2.8061 0.524562 0.693466 -5.54932 1.48954 -1.98556 
-2.71673 0.499826 0.522282 -4.90318 1.3156 -3.48986 
-2.60056 0.467659 0.384431 -4.27482 1.14671 -4.36847 
-2.48438 0.43549 0.27783 -3.94131 1.0572 -4.73971 
-2.39502 0.410743 0.200396 -4.37097 1.1725 -4.31822 
-2.35927 0.400847 0.150048 -5.3363 1.43126 -2.88974 
-2.61109 0.99518 0.693521 -4.97253 2.87877 -1.98934 
-2.53092 0.948245 0.522334 -4.39156 2.54206 -3.49508 
-2.4267 0.88722 0.38448 -3.82735 2.21526 -4.37339 
-2.32249 0.826191 0.277876 -3.52817 2.04198 -4.74395 
-2.24232 0.779246 0.200439 -3.91372 2.26516 -4.32203 
-2.21026 0.76047 0.15009 -4.78001 2.76639 -2.89396 
-2.30693 1.39177 0.693568 -4.06308 4.0631 -1.99104 
-2.24111 1.32613 0.522379 -3.5876 3.58757 -3.49722 
-2.15555 1.24079 0.384522 -3.12611 3.12607 -4.3753 
-2.06999 1.15544 0.277915 -2.88143 2.88142 -4.74566 
-2.00417 1.08979 0.200476 -3.19642 3.19645 -4.32374 
-1.97784 1.06353 0.150126 -3.90461 3.90464 -2.8955 
-1.91107 1.69687 0.693603 -2.87879 4.97253 -1.98932 
-1.86393 1.61684 0.522413 -2.54203 4.39157 -3.49509 
-1.80264 1.51278 0.384554 -2.21523 3.82739 -4.37338 
-1.74135 1.40872 0.277944 -2.04197 3.52816 -4.74396 
-1.6942 1.32868 0.200504 -2.26519 3.91371 -4.32203 
-1.67534 1.29667 0.150153 -2.7664 4.78 -2.89398 
-1.44092 1.89301 0.693626 -1.48954 5.54932 -1.98557 
-1.41595 1.80372 0.522435 -1.3156 4.90317 -3.48986 
-1.38349 1.68764 0.384574 -1.14673 4.27482 -4.36846 
-1.35103 1.57155 0.277964 -1.05719 3.9413 -4.73971 
-1.32606 1.48226 0.200522 -1.17248 4.37098 -4.31821 
-1.31608 1.44654 0.150171 -1.43126 5.33628 -2.88976 
-0.913916 1.9627 0.693634 1e-06 5.74867 -1.98422 
-0.913805 1.87013 0.522443 -1e-05 5.07986 -3.48763 
-0.913661 1.74977 0.384581 3e-06 4.42951 -4.36616 
-0.913517 1.62942 0.27797 -7e-06 4.08434 -4.73726 
-0.913406 1.53683 0.200528 -3e-06 4.52903 -4.31469 
-0.913361 1.4998 0.150177 -1e-06 5.52692 -2.88635 
-0.386741 1.89427 0.693626 1.48954 5.54932 -1.98556 
-0.411497 1.80492 0.522435 1.3156 4.90318 -3.48986 
-0.44368 1.68877 0.384574 1.14671 4.27482 -4.36847 
-0.475862 1.5726 0.277963 1.0572 3.94131 -4.73971 
-0.500618 1.48325 0.200522 1.1725 4.37097 -4.31822 
-0.510521 1.4475 0.150171 1.43126 5.3363 -2.88974 
0.0838766 1.69926 0.693603 2.87877 4.97253 -1.98934 
0.0369215 1.61911 0.522413 2.54206 4.39156 -3.49508 
-0.0241198 1.51491 0.384553 2.21526 3.82735 -4.37339 
-0.0851612 1.41071 0.277944 2.04198 3.52817 -4.74395 
-0.132115 1.33055 0.200504 2.26516 3.91372 -4.32203 
-0.150898 1.29849 0.150153 2.76639 4.78001 -2.89396 
0.480465 1.39511 0.693567 4.0631 4.06308 -1.99104 
0.414804 1.32931 0.522378 3.58757 3.5876 -3.49722 
0.329446 1.24376 0.384521 3.12607 3.12611 -4.3753 
0.244088 1.15821 0.277914 2.88142 2.88143 -4.74566 
0.178427 1.0924 0.200476 3.19645 3.19642 -4.32374 
0.152159 1.06608 0.150126 3.90464 3.90461 -2.8955 
0.785569 0.999246 0.693521 4.97253 2.87879 -1.98932 
0.705515 0.95212 0.522334 4.39157 2.54203 -3.49509 
0.601439 0.890845 0.38448 3.82739 2.21523 -4.37338 
0.497372 0.829567 0.277876 3.52816 2.04197 -4.74396 
0.417318 0.78243 0.200439 3.91371 2.26519 -4.32203 
0.385301 0.763577 0.15009 4.78 2.7664 -2.89398 
0.981702 0.529097 0.693465 5.54932 1.48954 -1.98557 
0.892392 0.504147 0.522281 4.90317 1.3156 -3.48986 
0.776301 0.471702 0.38443 4.27482 1.14673 -4.36846 
0.660199 0.439255 0.27783 3.9413 1.05719 -4.73971 
0.570899 0.414294 0.200396 4.37098 1.17248 -4.31821 
0.535171 0.404312 0.150047 5.33628 1.43126 -2.88976 
-0.305663 0.000544277 0.0059031 0.161315 0 -6.2802 
-0.911566 -0.000180435 1.75028e-07 -0 -0 -6.28258 
-0.327177 0.163215 0.00592227 0.155695 0.041676 -6.2802 
0.110654 0.00104078 0.022222 0.431259 -0 -6.26479 
0.0743601 0.275484 0.0222544 0.416149 0.111455 -6.26481 
0.372803 0.00135173 0.046875 0.984997 -4e-06 -6.18811 
0.327201 0.346175 0.0469157 0.950492 0.254601 -6.18822 
0.516213 0.00151979 0.077778 2.30149 5e-06 -5.722 
0.465514 0.384844 0.0778232 2.22111 0.595113 -5.72251 
0.576283 0.00158757 0.112847 4.50661 -3e-06 -3.50733 
0.523455 0.40104 0.112894 4.34965 1.16731 -3.50701 
-0.387717 0.308334 0.00593939 0.1392 0.0805 -6.28022 
-0.0277761 0.520315 0.0222833 0.372107 0.215237 -6.2649 
0.198872 0.653797 0.0469519 0.849985 0.491679 -6.18867 
0.322855 0.726812 0.0778635 1.98708 1.14958 -5.72481 
0.374788 0.757394 0.112936 3.89604 2.25536 -3.51233 
-0.48189 0.430525 0.00595381 0.113589 0.113589 -6.28023 
-0.186657 0.726463 0.0223076 0.303687 0.303686 -6.26495 
-0.000752022 0.912811 0.0469825 0.693744 0.693747 -6.18888 
0.10094 1.01474 0.0778975 1.62211 1.6221 -5.72589 
0.143539 1.05744 0.112972 3.18288 3.18288 -3.5144 
-0.604305 0.524405 0.00596491 0.0805 0.1392 -6.28022 
-0.393185 0.88485 0.0223263 0.215237 0.372106 -6.26491 
-0.260243 1.11181 0.047006 0.491682 0.849988 -6.18867 
-0.187522 1.23597 0.0779236 1.14956 1.98709 -5.7248 
-0.15706 1.28797 0.112999 2.25538 3.89601 -3.51235 
-0.74957 0.584597 0.00597204 0.041676 0.155694 -6.2802 
-0.638261 0.9864 0.0223384 0.111454 0.41615 -6.26481 
-0.568171 1.23941 0.0470212 0.2546 0.950496 -6.18822 
-0.52983 1.37781 0.0779405 0.595129 2.22111 -5.72251 
-0.51377 1.43578 0.113016 1.16728 4.34966 -3.50703 
-0.912291 0.605721 0.00597457 -0 0.161315 -6.2802 
-0.912789 1.02204 0.0223426 0 0.431259 -6.26479 
-0.913103 1.28418 0.0470265 4e-06 0.984997 -6.18811 
-0.913275 1.42759 0.0779464 -5e-06 2.30149 -5.722 
-0.913347 1.48766 0.113023 3e-06 4.50661 -3.50733 
-1.07496 0.584208 0.00597208 -0.041676 0.155695 -6.2802 
-1.18723 0.985743 0.0223384 -0.111455 0.416149 -6.26481 
-1.25793 1.23858 0.0470212 -0.254601 0.950492 -6.18822 
-1.2966 1.37689 0.0779405 -0.595113 2.22111 -5.72251 
-1.3128 1.43483 0.113016 -1.16731 4.34965 -3.50701 
-1.22008 0.523668 0.00596499 -0.0805 0.1392 -6.28022 
-1.43206 0.883606 0.0223265 -0.215237 0.372107 -6.2649 
-1.56555 1.11025 0.0470062 -0.491679 0.849985 -6.18867 
-1.63857 1.23423 0.0779238 -1.14958 1.98708 -5.72481 
-1.66915 1.28616 0.112999 -2.25536 3.89604 -3.51233 
-1.34227 0.429495 0.00595392 -0.113589 0.113589 -6.28023 
-1.63821 0.724725 0.0223078 -0.303686 0.303687 -6.26495 
-1.82456 0.910628 0.0469827 -0.693747 0.693744 -6.18888 
-1.9265 1.01232 0.0778978 -1.6221 1.62211 -5.72589 
-1.9692 1.05491 0.112972 -3.18288 3.18288 -3.5144 
-1.43615 0.307079 0.00593952 -0.1392 0.0805 -6.28022 
-1.7966 0.518198 0.0222835 -0.372106 0.215237 -6.26491 
-2.02357 0.651136 0.0469522 -0.849988 0.491682 -6.18867 
-2.14772 0.723854 0.0778638 -1.98709 1.14956 -5.7248 
-2.19973 0.754312 0.112936 -3.89601 2.25538 -3.51235 
-1.49634 0.161815 0.00592242 -0.155694 0.041676 -6.2802 
-1.89815 0.273122 0.0222546 -0.41615 0.111454 -6.26481 
-2.15116 0.343208 0.046916 -0.950496 0.2546 -6.18822 
-2.28956 0.381546 0.0778235 -2.22111 0.595129 -5.72251 
-2.34754 0.397602 0.112894 -4.34966 1.16728 -3.50703 
-1.51747 -0.000906537 0.00590325 -0.161315 -0 -6.2802 
-1.93378 -0.00140689 0.0222223 -0.431259 0 -6.26479 
-2.19593 -0.00172365 0.0468753 -0.984997 4e-06 -6.18811 
-2.33934 -0.00189899 0.0777784 -2.30149 -5e-06 -5.722 
-2.39941 -0.00197504 0.112847 -4.50661 3e-06 -3.50733 
-1.49595 -0.163577 0.00588408 -0.155695 -0.041676 -6.2802 
-1.89749 -0.27585 0.02219 -0.416149 -0.111455 -6.26481 
-2.15033 -0.346547 0.0468347 -0.950492 -0.254601 -6.18822 
-2.28865 -0.385224 0.0777332 -2.22111 -0.595113 -5.72251 
-2.34659 -0.401427 0.1128 -4.34965 -1.16731 -3.50701 
-1.43541 -0.308697 0.00586696 -0.1392 -0.0805 -6.28022 
-1.79536 -0.520682 0.0221611 -0.372107 -0.215237 -6.2649 
-2.022 -0.654169 0.0467984 -0.849985 -0.491679 -6.18867 
-2.14599 -0.727191 0.0776928 -1.98708 -1.14958 -5.72481 
-2.19792 -0.757781 0.112758 -3.89604 -2.25536 -3.51233 
-1.34124 -0.430887 0.00585254 -0.113589 -0.113589 -6.28023 
-1.63647 -0.726829 0.0221367 -0.303687 -0.303686 -6.26495 
-1.82238 -0.913183 0.0467678 -0.693744 -0.693747 -6.18888 
-1.92407 -1.01512 0.0776588 -1.62211 -1.6221 -5.72589 
-1.96667 -1.05783 0.112723 -3.18288 -3.18288 -3.5144 
-1.21883 -0.524767 0.00584144 -0.0805 -0.1392 -6.28022 
-1.42995 -0.885216 0.022118 -0.215237 -0.372106 -6.26491 
-1.56289 -1.11219 0.0467443 -0.491682 -0.849988 -6.18867 
-1.63561 -1.23635 0.0776327 -1.14956 -1.98709 -5.7248 
-1.66607 -1.28836 0.112696 -2.25538 -3.89601 -3.51235 
-1.07356 -0.584959 0.00583431 -0.041676 -0.155694 -6.2802 
-1.18487 -0.986766 0.022106 -0.111454 -0.41615 -6.26481 
-1.25496 -1.23978 0.0467292 -0.2546 -0.950496 -6.18822 
-1.2933 -1.37819 0.0776159 -0.595129 -2.22111 -5.72251 
-1.30936 -1.43617 0.112678 -1.16728 -4.34966 -3.50703 
-0.91084 -0.606084 0.00583178 0 -0.161315 -6.2802 
-0.910342 -1.0224 0.0221017 -0 -0.431259 -6.26479 
-0.910028 -1.28456 0.0467238 -4e-06 -0.984997 -6.18811 
-0.909856 -1.42797 0.0776099 5e-06 -2.30149 -5.722 
-0.909784 -1.48804 0.112672 -3e-06 -4.50661 -3.50733 
-0.74817 -0.58457 0.00583427 0.041676 -0.155695 -6.2802 
-0.635899 -0.986109 0.0221059 0.111455 -0.416149 -6.26481 
-0.565204 -1.23895 0.0467291 0.254601 -0.950492 -6.18822 
-0.526532 -1.37727 0.0776158 0.595113 -2.22111 -5.72251 
-0.510332 -1.43521 0.112678 1.16731 -4.34965 -3.50701 
-0.60305 -0.52403 0.00584136 0.0805 -0.1392 -6.28022 
-0.391067 -0.883973 0.0221179 0.215237 -0.372107 -6.2649 
-0.257583 -1.11062 0.0467441 0.491679 -0.849985 -6.18867 
-0.184564 -1.23461 0.0776325 1.14958 -1.98708 -5.72481 
-0.153978 -1.28655 0.112695 2.25536 -3.89604 -3.51233 
-0.48086 -0.429857 0.00585243 0.113589 -0.113589 -6.28023 
-0.184919 -0.725092 0.0221366 0.303686 -0.303687 -6.26495 
0.00143151 -0.911 0.0467676 0.693747 -0.693744 -6.18888 
0.103367 -1.0127 0.0776586 1.6221 -1.62211 -5.72589 
0.146068 -1.0553 0.112723 3.18288 -3.18288 -3.5144 
-0.386979 -0.307441 0.00586683 0.1392 -0.0805 -6.28022 
-0.0265324 -0.518564 0.0221609 0.372106 -0.215237 -6.26491 
0.200435 -0.651508 0.0467981 0.849988 -0.491682 -6.18867 
0.324592 -0.724233 0.0776925 1.98709 -1.14956 -5.7248 
0.376599 -0.754699 0.112758 3.89601 -2.25538 -3.51235 
-0.326787 -0.162177 0.00588393 0.155694 -0.041676 -6.2802 
0.0750173 -0.273488 0.0221897 0.41615 -0.111454 -6.26481 
0.328026 -0.34358 0.0468344 0.950496 -0.2546 -6.18822 
0.466432 -0.381925 0.0777328 2.22111 -0.595129 -5.72251 
0.524412 -0.39799 0.1128 4.34966 -1.16728 -3.50703 
-0.711565 -0.000259151 2.7 4.19391 0.000146 4.07661 
-0.740269 -0.000303582 2.78542 5.74531 0.000395 -0.80237 
-0.746231 -0.0463558 2.78541 5.55002 -1.48412 -0.804962 
-0.718538 -0.0539715 2.69999 4.04872 -1.08566 4.07989 
-0.763227 -0.0874371 2.78541 4.97112 -2.87335 -0.807811 
-0.738406 -0.101921 2.69999 3.62618 -2.09854 4.08005 
-0.789747 -0.122035 2.78541 4.05886 -4.05925 -0.808945 
-0.769395 -0.142328 2.69998 2.96189 -2.96202 4.07984 
-0.824281 -0.148638 2.7854 2.87323 -4.9716 -0.807791 
-0.809728 -0.173414 2.69998 2.09834 -3.62611 4.08042 
-0.865322 -0.165732 2.7854 1.48444 -5.55034 -0.804972 
-0.85763 -0.193397 2.69998 1.08569 -4.04851 4.08031 
-0.91136 -0.171805 2.7854 0.000395 -5.74531 -0.80237 
-0.911325 -0.200498 2.69998 0.000146 -4.19391 4.07661 
-0.957412 -0.165843 2.7854 -1.48412 -5.55002 -0.804962 
-0.965038 -0.193526 2.69998 -1.08566 -4.04872 4.07989 
-0.998493 -0.148847 2.7854 -2.87335 -4.97112 -0.807811 
-1.01299 -0.173657 2.69998 -2.09854 -3.62618 4.08005 
-1.03309 -0.122326 2.78541 -4.05925 -4.05886 -0.808945 
-1.05339 -0.142669 2.69998 -2.96202 -2.96189 4.07984 
-1.05969 -0.0877921 2.78541 -4.9716 -2.87323 -0.807791 
-1.08448 -0.102336 2.69999 -3.62611 -2.09834 4.08042 
-1.07679 -0.0467515 2.78541 -5.55034 -1.48444 -0.804972 
-1.10446 -0.0544336 2.69999 -4.04851 -1.08569 4.08031 
-1.08286 -0.000713745 2.78542 -5.74531 -0.000395 -0.80237 
-1.11156 -0.000738044 2.7 -4.19391 -0.000146 4.07661 
-1.0769 0.0453384 2.78543 -5.55002 1.48412 -0.804962 
-1.10459 0.0529743 2.70001 -4.04872 1.08566 4.07989 
-1.0599 0.0864198 2.78543 -4.97112 2.87335 -0.807811 
-1.08472 0.100924 2.70001 -3.62618 2.09854 4.08005 
-1.03338 0.121018 2.78543 -4.05886 4.05925 -0.808945 
-1.05373 0.141331 2.70002 -2.96189 2.96202 4.07984 
-0.998848 0.147621 2.78544 -2.87323 4.9716 -0.807791 
-1.0134 0.172417 2.70002 -2.09834 3.62611 4.08042 
-0.957808 0.164715 2.78544 -1.48444 5.55034 -0.804972 
-0.9655 0.1924 2.70002 -1.08569 4.04851 4.08031 
-0.91177 0.170787 2.78544 -0.000395 5.74531 -0.80237 
-0.911804 0.199501 2.70002 -0.000146 4.19391 4.07661 
-0.865718 0.164825 2.78544 1.48412 5.55002 -0.804962 
-0.858092 0.192529 2.70002 1.08566 4.04872 4.07989 
-0.824636 0.14783 2.78544 2.87335 4.97112 -0.807811 
-0.810142 0.17266 2.70002 2.09854 3.62618 4.08005 
-0.790039 0.121309 2.78543 4.05925 4.05886 -0.808945 
-0.769735 0.141671 2.70002 2.96202 2.96189 4.07984 
-0.763435 0.0867747 2.78543 4.9716 2.87323 -0.807791 
-0.73865 0.101338 2.70001 3.62611 2.09834 4.08042 
-0.746341 0.0457342 2.78543 5.55034 1.48444 -0.804972 
-0.718666 0.0534364 2.70001 4.04851 1.08569 4.08031 
-0.560639 -7.09286e-05 2.63611 1.83261 0 5.99038 
-0.572873 -0.0943156 2.6361 1.76717 -0.474311 5.99138 
-0.337491 0.000201796 2.58889 1.11789 0 6.18141 
-0.357506 -0.153972 2.58887 1.07804 -0.289223 6.18172 
-0.0865655 0.000506796 2.55 0.998101 -0 6.20148 
-0.115328 -0.221056 2.54997 0.962723 -0.25814 6.20167 
0.147694 0.000791842 2.51111 1.36447 8e-06 6.11641 
0.110765 -0.283684 2.51108 1.31646 -0.352808 6.11665 
0.320844 0.00100471 2.46389 3.03875 -2e-05 5.19748 
0.27787 -0.329971 2.46385 2.93301 -0.786081 5.19808 
0.388434 0.00109316 2.4 2.01998 -1.9e-05 2.13699 
0.343112 -0.348035 2.39996 1.94733 -0.523601 2.13659 
-0.607736 -0.178449 2.63609 1.58114 -0.915352 5.99222 
-0.414536 -0.291606 2.58886 0.964337 -0.558172 6.18208 
-0.197286 -0.418848 2.54995 0.861075 -0.498295 6.202 
0.00553382 -0.53764 2.51105 1.17739 -0.681196 6.11741 
0.155444 -0.62544 2.46382 2.62497 -1.51877 5.20179 
0.213965 -0.659709 2.39992 1.74419 -1.01045 2.13972 
-0.66211 -0.24935 2.63608 1.2912 -1.2912 5.9925 
-0.503484 -0.40759 2.58884 0.787372 -0.787372 6.18222 
-0.325114 -0.585529 2.54993 0.70296 -0.702961 6.20214 
-0.158591 -0.751649 2.51102 0.961082 -0.961082 6.11774 
-0.035509 -0.874432 2.46379 2.14329 -2.14329 5.20354 
0.0125394 -0.922358 2.39989 1.42534 -1.42534 2.14128 
-0.73288 -0.303893 2.63607 0.91535 -1.58114 5.99222 
-0.619255 -0.496816 2.58883 0.558173 -0.964338 6.18208 
-0.491489 -0.713756 2.54992 0.498295 -0.861075 6.202 
-0.372207 -0.916286 2.511 0.681198 -1.17738 6.11741 
-0.284043 -1.06598 2.46376 1.51876 -2.62499 5.20178 
-0.249626 -1.12441 2.39987 1.01044 -1.74419 2.13972 
-0.81693 -0.338957 2.63607 0.474311 -1.76717 5.99138 
-0.756752 -0.554176 2.58882 0.289222 -1.07804 6.18172 
-0.689084 -0.796187 2.54991 0.258141 -0.962723 6.20167 
-0.625911 -1.02213 2.51099 0.352795 -1.31647 6.11665 
-0.579218 -1.18911 2.46375 0.786112 -2.933 5.19808 
-0.56099 -1.2543 2.39985 0.523633 -1.94732 2.13659 
-0.911145 -0.351417 2.63607 0 -1.83261 5.99038 
-0.910878 -0.574559 2.58882 0 -1.11789 6.18141 
-0.910577 -0.82548 2.5499 -0 -0.998101 6.20148 
-0.910297 -1.05974 2.51099 8e-06 -1.36447 6.11641 
-0.910089 -1.23288 2.46374 -2e-05 -3.03875 5.19748 
-0.910009 -1.30046 2.39985 -1.9e-05 -2.01998 2.13699 
-1.00539 -0.339183 2.63607 -0.474311 -1.76717 5.99138 
-1.06505 -0.554545 2.58882 -0.289223 -1.07804 6.18172 
-1.13214 -0.796718 2.54991 -0.25814 -0.962723 6.20167 
-1.19477 -1.02281 2.51099 -0.352808 -1.31646 6.11665 
-1.24107 -1.18991 2.46375 -0.786081 -2.93301 5.19808 
-1.25914 -1.25514 2.39985 -0.523601 -1.94733 2.13659 
-1.08952 -0.30432 2.63607 -0.915352 -1.58114 5.99222 
-1.20269 -0.497514 2.58883 -0.558172 -0.964337 6.18208 
-1.32993 -0.71476 2.54992 -0.498295 -0.861075 6.202 
-1.44873 -0.917575 2.511 -0.681196 -1.17739 6.11741 
-1.53653 -1.06748 2.46376 -1.51877 -2.62497 5.20179 
-1.57081 -1.12599 2.39987 -1.01045 -1.74419 2.13972 
-1.16042 -0.249946 2.63608 -1.2912 -1.2912 5.9925 
-1.31867 -0.408566 2.58884 -0.787372 -0.787372 6.18222 
-1.49661 -0.586932 2.54993 -0.702961 -0.70296 6.20214 
-1.66274 -0.75345 2.51102 -0.961082 -0.961082 6.11774 
-1.78553 -0.876527 2.46379 -2.14329 -2.14329 5.20354 
-1.83346 -0.924568 2.39989 -1.42534 -1.42534 2.14128 
-1.21497 -0.179176 2.63609 -1.58114 -0.91535 5.99222 
-1.4079 -0.292795 2.58886 -0.964338 -0.558173 6.18208 
-1.62484 -0.420557 2.54995 -0.861075 -0.498295 6.202 
-1.82737 -0.539834 2.51105 -1.17738 -0.681198 6.11741 
-1.97707 -0.627993 2.46382 -2.62499 -1.51876 5.20178 
-2.03551 -0.662402 2.39992 -1.74419 -1.01044 2.13972 
-1.25003 -0.0951264 2.6361 -1.76717 -0.474311 5.99138 
-1.46525 -0.155299 2.58887 -1.07804 -0.289222 6.18172 
-1.70727 -0.222962 2.54997 -0.962723 -0.258141 6.20167 
-1.93321 -0.286131 2.51108 -1.31647 -0.352795 6.11665 
-2.10021 -0.332818 2.46385 -2.933 -0.786112 5.19808 
-2.16541 -0.351039 2.39996 -1.94732 -0.523633 2.13659 
-1.26249 -0.000911209 2.63611 -1.83261 -0 5.99038 
-1.48564 -0.00117281 2.58889 -1.11789 -0 6.18141 
-1.73656 -0.00146864 2.55 -0.998101 0 6.20148 
-1.97082 -0.00174452 2.51111 -1.36447 -8e-06 6.11641 
-2.14397 -0.00194626 2.46389 -3.03875 2e-05 5.19748 
-2.21156 -0.00201965 2.4 -2.01998 1.9e-05 2.13699 
-1.25026 0.0933335 2.63612 -1.76717 0.474311 5.99138 
-1.46562 0.153001 2.58891 -1.07804 0.289223 6.18172 
-1.7078 0.220094 2.55003 -0.962723 0.25814 6.20167 
-1.93389 0.282731 2.51114 -1.31646 0.352808 6.11665 
-2.101 0.329029 2.46393 -2.93301 0.786081 5.19808 
-2.16624 0.347109 2.40004 -1.94733 0.523601 2.13659 
-1.21539 0.177467 2.63613 -1.58114 0.915352 5.99222 
-1.40859 0.290635 2.58892 -0.964337 0.558172 6.18208 
-1.62584 0.417886 2.55005 -0.861075 0.498295 6.202 
-1.82866 0.536687 2.51117 -1.17739 0.681196 6.11741 
-1.97857 0.624498 2.46396 -2.62497 1.51877 5.20179 
-2.0371 0.658783 2.40008 -1.74419 1.01045 2.13972 
-1.16102 0.248367 2.63614 -1.2912 1.2912 5.9925 
-1.31965 0.406619 2.58894 -0.787372 0.787372 6.18222 
-1.49802 0.584567 2.55007 -0.70296 0.702961 6.20214 
-1.66454 0.750697 2.5112 -0.961082 0.961082 6.11774 
-1.78762 0.87349 2.46399 -2.14329 2.14329 5.20354 
-1.83567 0.921431 2.40011 -1.42534 1.42534 2.14128 
-1.09025 0.302911 2.63615 -0.91535 1.58114 5.99222 
-1.20387 0.495845 2.58895 -0.558173 0.964338 6.18208 
-1.33164 0.712795 2.55008 -0.498295 0.861075 6.202 
-1.45092 0.915334 2.51122 -0.681198 1.17738 6.11741 
-1.53909 1.06504 2.46402 -1.51876 2.62499 5.20178 
-1.5735 1.12349 2.40013 -1.01044 1.74419 2.13972 
-1.0062 0.337975 2.63615 -0.474311 1.76717 5.99138 
-1.06638 0.553205 2.58896 -0.289222 1.07804 6.18172 
-1.13405 0.795225 2.55009 -0.258141 0.962723 6.20167 
-1.19722 1.02117 2.51123 -0.352795 1.31647 6.11665 
-1.24391 1.18817 2.46403 -0.786112 2.933 5.19808 
-1.26214 1.25338 2.40015 -0.523633 1.94732 2.13659 
-0.911985 0.350435 2.63615 -0 1.83261 5.99038 
-0.912252 0.573588 2.58896 -0 1.11789 6.18141 
-0.912553 0.824518 2.5501 0 0.998101 6.20148 
-0.912833 1.05878 2.51123 -8e-06 1.36447 6.11641 
-0.91304 1.23194 2.46404 2e-05 3.03875 5.19748 
-0.913121 1.29954 2.40015 1.9e-05 2.01998 2.13699 
-0.81774 0.338201 2.63615 0.474311 1.76717 5.99138 
-0.758078 0.553574 2.58896 0.289223 1.07804 6.18172 
-0.69099 0.795756 2.55009 0.25814 0.962723 6.20167 
-0.628358 1.02185 2.51123 0.352808 1.31646 6.11665 
-0.582065 1.18896 2.46403 0.786081 2.93301 5.19808 
-0.563993 1.25421 2.40015 0.523601 1.94733 2.13659 
-0.733607 0.303338 2.63615 0.915352 1.58114 5.99222 
-0.620445 0.496543 2.58895 0.558172 0.964337 6.18208 
-0.493198 0.713798 2.55008 0.498295 0.861075 6.202 
-0.374402 0.916622 2.51122 0.681196 1.17739 6.11741 
-0.286596 1.06654 2.46402 1.51877 2.62497 5.20179 
-0.252319 1.12507 2.40013 1.01045 1.74419 2.13972 
-0.662706 0.248964 2.63614 1.2912 1.2912 5.9925 
-0.50446 0.407595 2.58894 0.787372 0.787372 6.18222 
-0.326517 0.58597 2.55007 0.702961 0.70296 6.20214 
-0.160392 0.752498 2.5112 0.961082 0.961082 6.11774 
-0.0376042 0.875585 2.46399 2.14329 2.14329 5.20354 
0.0103293 0.923641 2.40011 1.42534 1.42534 2.14128 
-0.608163 0.178194 2.63613 1.58114 0.91535 5.99222 
-0.415235 0.291824 2.58892 0.964338 0.558173 6.18208 
-0.198289 0.419595 2.55005 0.861075 0.498295 6.202 
0.00424497 0.538881 2.51117 1.17738 0.681198 6.11741 
0.153945 0.627051 2.46396 2.62499 1.51876 5.20178 
0.212383 0.661476 2.40008 1.74419 1.01044 2.13972 
-0.573099 0.0941442 2.63612 1.76717 0.474311 5.99138 
-0.357875 0.154328 2.58891 1.07804 0.289222 6.18172 
-0.115859 0.222 2.55003 0.962723 0.258141 6.20167 
0.110084 0.285178 2.51114 1.31647 0.352795 6.11665 
0.277078 0.331877 2.46393 2.933 0.786112 5.19808 
0.342276 0.350112 2.40004 1.94732 0.523633 2.13659 
-2.8361 -0.00272306 2.02396 0.094268 -0.001216 -6.23348 
-2.51156 -0.00233463 2.025 0.010535 -0.000149 -3.2313 
-2.504 -0.127328 2.04166 0.010082 -1.0652 -3.05944 
-2.83845 -0.127728 2.04054 0.090051 -1.94132 -5.86824 
-3.10786 -0.00304756 2.01667 0.364857 -0.004633 -6.23163 
-3.11786 -0.128062 2.03271 0.351269 -1.94818 -5.86862 
-3.32406 -0.00330407 1.99687 1.01277 -0.012691 -6.16643 
-3.33965 -0.128325 2.01145 0.980425 -1.99642 -5.79551 
-3.48193 -0.00348853 1.95833 2.44235 -0.027044 -5.72491 
-3.50126 -0.128513 1.97005 2.3466 -2.1754 -5.31371 
-3.57869 -0.00359689 1.89479 4.76232 -0.032058 -3.77325 
-3.60011 -0.128623 1.9018 4.44719 -2.48461 -3.38911 
-3.61156 -0.00362507 1.8 6.14778 -0.012307 -0.628114 
-3.63363 -0.128652 1.79999 5.60614 -2.533 -0.511054 
-2.48539 -0.20231 2.08331 0.00703 -2.43459 -2.0077 
-2.84462 -0.20274 2.082 0.067108 -4.38807 -4.06583 
-3.14314 -0.203097 2.07282 0.268117 -4.41568 -4.05366 
-3.37891 -0.203376 2.0479 0.744209 -4.51292 -3.93629 
-3.54987 -0.203575 1.99936 1.67604 -4.76871 -3.38909 
-3.65395 -0.20369 1.91935 2.81299 -5.07261 -1.93374 
-3.6891 -0.203718 1.79998 3.43299 -5.03248 -0.251378 
-2.46129 -0.227288 2.13747 -0.001441 -2.85155 0.324823 
-2.85273 -0.227756 2.13591 0.000476 -5.7022 0.02174 
-3.1761 -0.228142 2.12497 0.016406 -5.70685 0.06766 
-3.43004 -0.228443 2.09528 0.02793 -5.74143 0.168368 
-3.61314 -0.228655 2.03747 -0.047792 -5.82486 0.312173 
-3.72402 -0.228777 1.94216 -0.275184 -5.90417 0.24581 
-3.76129 -0.228804 1.79997 -0.232368 -5.92724 0.018547 
-2.43725 -0.202265 2.19165 -0.008706 -1.93985 2.05828 
-2.86089 -0.202772 2.18983 -0.081175 -4.35574 4.06713 
-3.20913 -0.203188 2.17714 -0.319815 -4.33644 4.03773 
-3.48123 -0.20351 2.14269 -0.86746 -4.34659 3.86065 
-3.67648 -0.203735 2.0756 -1.88334 -4.39814 3.23891 
-3.79416 -0.203863 1.96499 -3.07474 -4.47094 1.80613 
-3.83354 -0.203891 1.79998 -3.5754 -4.6224 0.175178 
-2.41882 -0.127248 2.23332 -0.012329 -0.872432 2.80183 
-2.86724 -0.127785 2.23132 -0.124077 -1.92959 5.85018 
-3.23459 -0.128223 2.21727 -0.501964 -1.93377 5.79887 
-3.52067 -0.128561 2.17916 -1.37843 -1.9928 5.54761 
-3.72526 -0.128797 2.10493 -2.95174 -2.10289 4.5974 
-3.84817 -0.12893 1.98255 -4.621 -2.18123 2.52666 
-3.88919 -0.128958 1.79999 -5.43434 -2.28274 0.234227 
-2.41156 -0.00224142 2.25 -0.013503 6.8e-05 2.99656 
-2.86989 -0.0027899 2.24792 -0.135243 0.000711 6.21697 
-3.24489 -0.00323715 2.23333 -0.546788 0.003051 6.17033 
-3.53656 -0.00358168 2.19375 -1.51146 0.008227 5.93225 
-3.74489 -0.00382202 2.11667 -3.25474 0.014028 4.94564 
-3.86989 -0.00395669 1.98958 -5.0768 0.011547 2.73043 
-3.91156 -0.00398424 1.8 -5.97137 0.003742 0.251939 
-2.41912 0.122752 2.23335 -0.012602 0.872438 2.80179 
-2.86754 0.122215 2.23135 -0.126741 1.93049 5.84928 
-3.23489 0.121777 2.2173 -0.509817 1.93863 5.79361 
-3.52097 0.121439 2.17919 -1.39136 2.00532 5.52902 
-3.72556 0.121203 2.10496 -2.94862 2.11571 4.56556 
-3.84847 0.12107 1.98258 -4.59428 2.18515 2.52775 
-3.88949 0.121042 1.80002 -5.42724 2.28483 0.248039 
-2.43773 0.197734 2.19169 -0.009071 1.93971 2.05832 
-2.86137 0.197227 2.18987 -0.084439 4.35493 4.06652 
-3.20961 0.196812 2.17718 -0.32839 4.33424 4.03234 
-3.48171 0.19649 2.14273 -0.87965 4.33832 3.84408 
-3.67696 0.196264 2.07564 -1.88308 4.37082 3.22208 
-3.79464 0.196136 1.96503 -3.05847 4.43778 1.82642 
-3.83402 0.196109 1.80002 -3.5736 4.61394 0.195103 
-2.46183 0.222712 2.13753 -0.001532 2.85148 0.3251 
-2.85327 0.222243 2.13597 0.000907 5.70243 0.024194 
-3.17664 0.221857 2.12503 0.020138 5.7088 0.080042 
-3.43058 0.221557 2.09534 0.034038 5.74475 0.206683 
-3.61368 0.221345 2.03753 -0.059167 5.82144 0.375356 
-3.72456 0.221223 1.94222 -0.304888 5.89498 0.286447 
-3.76183 0.221195 1.80003 -0.246725 5.92585 0.023782 
-2.48587 0.197689 2.08335 0.007577 2.43465 -2.00784 
-2.8451 0.197259 2.08204 0.071374 4.38997 -4.06547 
-3.14362 0.196903 2.07286 0.279064 4.42517 -4.05008 
-3.37939 0.196624 2.04794 0.762051 4.53774 -3.92477 
-3.55035 0.196425 1.9994 1.68143 4.80223 -3.37247 
-3.65443 0.19631 1.91939 2.7898 5.08611 -1.96301 
-3.68958 0.196282 1.80002 3.42771 5.0406 -0.283675 
-2.5043 0.122672 2.04169 0.010647 1.06501 -3.05959 
-2.83875 0.122272 2.04057 0.093853 1.94049 -5.86912 
-3.11816 0.121938 2.03274 0.359631 1.94551 -5.87115 
-3.33995 0.121675 2.01148 0.993693 1.98699 -5.80084 
-3.50156 0.121487 1.97008 2.35869 2.14632 -5.32181 
-3.60041 0.121376 1.90183 4.43211 2.43491 -3.42659 
-3.63393 0.121348 1.80002 5.60952 2.51879 -0.550954 
-3.59443 -0.00358934 1.67083 6.05751 -0.005206 1.43247 
-3.61559 -0.128614 1.66397 5.49975 -2.48021 1.30713 
-3.54119 -0.00350744 1.51667 5.68451 -0.015793 2.54125 
-3.5597 -0.128528 1.50534 5.16519 -2.42444 2.35081 
-3.44906 -0.0033775 1.35 5.16993 -0.023668 3.48705 
-3.46326 -0.128393 1.33575 4.72693 -2.28127 3.26795 
-3.31526 -0.00319767 1.18333 4.48909 -0.024599 4.34359 
-3.32362 -0.128206 1.16686 4.14483 -2.08333 4.11636 
-3.13702 -0.00296611 1.02917 3.62435 -0.016993 5.09401 
-3.13809 -0.127965 1.01032 3.3745 -1.94215 4.84583 
-2.904 -0.127669 0.877764 1.57466 -1.14392 2.81526 
-3.66879 -0.203676 1.64682 3.40226 -4.94837 0.830751 
-3.60624 -0.203581 1.47704 3.21776 -4.88619 1.533 
-3.49905 -0.203432 1.30015 3.00193 -4.75194 2.1928 
-3.34479 -0.203226 1.1257 2.70805 -4.56789 2.84375 
-3.14104 -0.202963 0.963204 2.25414 -4.44059 3.39755 
-2.88539 -0.202641 0.822199 0.946361 -2.63216 1.73881 
-3.73803 -0.228756 1.62454 -0.137891 -5.93509 -0.031335 
-3.66685 -0.228649 1.44025 -0.099539 -5.91896 -0.060856 
-3.54566 -0.228482 1.25388 -0.06723 -5.86407 -0.07593 
-3.3724 -0.228253 1.07219 -0.056576 -5.77407 -0.076786 
-3.14497 -0.227961 0.901971 -0.084228 -5.69943 -0.079304 
-2.86129 -0.227603 0.749974 -0.29649 -2.84027 -0.572814 
-3.80732 -0.203836 1.60227 -3.45877 -4.70009 -0.899742 
-3.72751 -0.203717 1.40348 -3.18831 -4.68159 -1.70845 
-3.59234 -0.203532 1.20762 -2.86619 -4.58264 -2.41486 
-3.40007 -0.20328 1.0187 -2.51367 -4.42889 -3.01775 
-3.14896 -0.202958 0.840743 -2.10614 -4.31337 -3.46008 
-2.83725 -0.202566 0.677755 -0.977126 -1.7166 -1.89113 
-3.8607 -0.128898 1.58514 -5.31298 -2.32733 -1.41604 
-3.77424 -0.12877 1.3752 -4.85214 -2.2941 -2.68105 
-3.62831 -0.128571 1.17204 -4.24722 -2.18321 -3.70791 
-3.42142 -0.128301 0.977558 -3.59812 -2.0305 -4.47673 
-3.15209 -0.127956 0.793652 -2.95808 -1.92874 -4.99915 
-2.81882 -0.127537 0.622208 -1.217 -0.75815 -2.37302 
-3.88216 -0.00392292 1.5783 -5.8368 0.002821 -1.57168 
-3.79304 -0.00379096 1.36389 -5.29563 0.008926 -2.9663 
-3.64281 -0.00358681 1.15781 -4.57588 0.013542 -4.05445 
-3.43008 -0.00330895 0.961111 -3.82664 0.013286 -4.82196 
-3.15346 -0.00295582 0.774826 -3.13543 0.007884 -5.32946 
-2.81156 -0.00252588 0.6 -1.30143 0.001869 -2.53914 
-3.861 0.121102 1.58517 -5.30568 2.32937 -1.42545 
-3.77454 0.12123 1.37523 -4.83337 2.30038 -2.6863 
-3.62861 0.121429 1.17207 -4.2279 2.19406 -3.69969 
-3.42172 0.121699 0.977587 -3.5892 2.04268 -4.46044 
-3.15239 0.122043 0.793681 -2.96376 1.93488 -4.98473 
-2.81912 0.122463 0.622237 -1.22425 0.757532 -2.36832 
-3.8078 0.196163 1.60231 -3.45443 4.69548 -0.912719 
-3.72799 0.196282 1.40352 -3.17883 4.66638 -1.72189 
-3.59282 0.196467 1.20766 -2.85853 4.55967 -2.41757 
-3.40055 0.19672 1.01874 -2.51577 4.4056 -3.00864 
-3.14944 0.197041 0.84079 -2.12338 4.29454 -3.44849 
-2.83773 0.197434 0.677802 -0.991023 1.70685 -1.88914 
-3.73857 0.221244 1.6246 -0.145843 5.93505 -0.03413 
-3.66739 0.221351 1.44031 -0.123477 5.9185 -0.07244 
-3.5462 0.221518 1.25394 -0.103045 5.86321 -0.098881 
-3.37294 0.221747 1.07225 -0.096691 5.77236 -0.104626 
-3.14551 0.222039 0.902024 -0.116967 5.69377 -0.101875 
-2.86183 0.222396 0.750027 -0.308039 2.83483 -0.582027 
-3.66927 0.196324 1.64686 3.39494 4.95473 0.847596 
-3.60672 0.196419 1.47708 3.20282 4.90476 1.54814 
-3.49953 0.196568 1.30019 2.99045 4.77958 2.1964 
-3.34527 0.196773 1.12574 2.71386 4.59467 2.83612 
-3.14152 0.197036 0.963251 2.2864 4.45005 3.38944 
-2.88587 0.197359 0.822246 0.969833 2.62839 1.74128 
-3.61589 0.121386 1.664 5.49889 2.47659 1.3262 
-3.56 0.121471 1.50537 5.1682 2.41239 2.37259 
-3.46356 0.121607 1.33578 4.73762 2.26075 3.28273 
-3.32392 0.121794 1.16689 4.16681 2.05753 4.1183 
-3.13839 0.122035 1.01035 3.41057 1.91669 4.83672 
-2.9043 0.12233 0.877793 1.59815 1.13 2.81216 
1.14723 0.00211045 1.47639 -2.17857 -0.01483 5.7903 
0.788434 0.00168694 1.425 -0.456686 -0.011865 3.0974 
0.788763 -0.273306 1.36386 -0.382838 -1.46554 2.69997 
1.16113 -0.260213 1.42518 -1.85651 -2.80916 5.1644 
1.3588 0.00234788 1.61111 -4.43378 0.005998 4.31329 
1.37883 -0.228334 1.57199 -3.84078 -2.60107 4.07746 
1.47593 0.00246585 1.8 -5.62025 0.028271 2.69279 
1.49838 -0.187087 1.77359 -4.98651 -2.4093 2.73988 
1.55139 0.00253099 2.01389 -5.71895 0.052166 2.25547 
1.57626 -0.145895 1.99926 -5.01271 -2.52939 2.33036 
1.63797 0.00260993 2.22361 -5.00396 0.068468 3.09139 
1.66897 -0.114173 2.2183 -4.27413 -2.76825 3.01126 
1.78843 0.00276928 2.4 -3.90377 0.065227 4.34309 
